X,Y,Z,R,G,B,nX,nY,nZ
0.0176392,0.0237427,-0.369385,0.6784313725490196,0.3176470588235294,0.1411764705882353,0.0,0.0,1.0
0.0193939,0.0237427,-0.369385,0.6352941176470588,0.2705882352941176,0.0862745098039215,0.0,0.0,1.0
0.0211639,0.0237427,-0.369385,0.611764705882353,0.2509803921568627,0.0745098039215686,0.177943,0.0885862,0.980045
-0.0035305,0.0225677,-0.379395,0.8509803921568627,0.6431372549019608,0.5137254901960784,-0.732743,0.0,0.680506
-0.00171661,0.0224609,-0.377441,0.8745098039215686,0.5294117647058824,0.3372549019607843,-0.630479,0.0,0.776207
7.80225e-05,0.0223999,-0.376465,0.9215686274509804,0.5529411764705883,0.396078431372549,-0.523084,0.0,0.852281
0.00186348,0.0223389,-0.375244,0.8980392156862745,0.5450980392156862,0.392156862745098,-0.525095,0.0,0.851043
0.00363922,0.0222778,-0.374268,0.9254901960784314,0.5764705882352941,0.4313725490196078,-0.482876,0.0,0.875689
0.00540543,0.0222168,-0.373291,0.8431372549019608,0.5058823529411764,0.3568627450980392,-0.484677,0.0,0.874693
0.007164,0.0221558,-0.372314,0.8196078431372549,0.4823529411764706,0.3254901960784314,-0.486692,0.0,0.873574
0.00891113,0.0220947,-0.371338,0.8784313725490196,0.5411764705882353,0.392156862745098,-0.489532,0.0,0.871985
0.010643,0.0220337,-0.370361,0.788235294117647,0.4627450980392157,0.3019607843137254,-0.491172,0.0,0.871063
0.0123749,0.0219727,-0.369385,0.7450980392156863,0.396078431372549,0.2431372549019607,-0.270071,0.0,0.96284
0.0141296,0.0219727,-0.369385,0.7764705882352941,0.4392156862745098,0.2823529411764706,-0.0915744,0.0915744,0.991579
0.0158844,0.0219727,-0.369385,0.7058823529411765,0.3450980392156862,0.1843137254901961,0.0,0.263815,0.964573
0.0176392,0.0219727,-0.369385,0.6627450980392157,0.2823529411764706,0.1215686274509803,0.0893308,0.178662,0.979847
0.0193939,0.0219727,-0.369385,0.6862745098039216,0.3372549019607843,0.1647058823529411,0.0,0.0,1.0
0.0211639,0.0219727,-0.369385,0.6078431372549019,0.2588235294117647,0.0941176470588235,0.0,0.0,1.0
-0.0035305,0.0207672,-0.379395,0.8470588235294118,0.4823529411764706,0.2352941176470588,-0.659,0.131604,0.74054
-0.00171661,0.0206604,-0.377441,0.9019607843137256,0.4784313725490196,0.2352941176470588,-0.630479,0.0,0.776207
7.80225e-05,0.0205994,-0.376465,0.8862745098039215,0.4705882352941176,0.2509803921568627,-0.523022,0.0,0.852319
0.00186348,0.0205536,-0.375244,0.8352941176470589,0.4431372549019607,0.2352941176470588,-0.525154,0.0,0.851007
0.00363922,0.0204926,-0.374268,0.8705882352941177,0.5098039215686274,0.3333333333333333,-0.538354,0.0767433,0.839217
0.00540543,0.0204468,-0.373291,0.8235294117647058,0.4549019607843137,0.2823529411764706,-0.46627,0.233302,0.853324
0.007164,0.0203857,-0.372314,0.8235294117647058,0.4549019607843137,0.2823529411764706,-0.467244,0.234633,0.852426
0.00891113,0.0203247,-0.371338,0.796078431372549,0.4352941176470588,0.2588235294117647,-0.470307,0.235153,0.850596
0.010643,0.0202789,-0.370361,0.7843137254901961,0.4392156862745098,0.2666666666666666,-0.415375,0.165574,0.894454
0.0123749,0.0202179,-0.369385,0.7372549019607844,0.388235294117647,0.2352941176470588,-0.348298,0.0870746,0.933331
0.0141296,0.0202179,-0.369385,0.7372549019607844,0.388235294117647,0.2352941176470588,-0.179573,0.179182,0.967289
0.0158386,0.0201721,-0.368408,0.6862745098039216,0.3254901960784314,0.1647058823529411,-0.179435,0.179435,0.967267
0.0175934,0.0201721,-0.368408,0.6627450980392157,0.2823529411764706,0.1215686274509803,0.167613,0.335226,0.927108
0.0193939,0.0202179,-0.369385,0.6627450980392157,0.3176470588235294,0.1450980392156863,0.252217,0.252948,0.934026
0.0211639,0.0202179,-0.369385,0.611764705882353,0.2784313725490196,0.1098039215686274,0.0,0.0,1.0
-0.00352097,0.0189209,-0.378418,0.8431372549019608,0.4862745098039215,0.2549019607843137,-0.466095,0.155751,0.870917
-0.00171661,0.0188599,-0.377441,0.9254901960784314,0.5411764705882353,0.3294117647058823,-0.531207,0.0760136,0.843825
7.80225e-05,0.0188141,-0.376465,0.9019607843137256,0.5098039215686274,0.3019607843137254,-0.523022,0.0,0.852319
0.00186348,0.0187683,-0.375244,0.8627450980392157,0.4784313725490196,0.2823529411764706,-0.574853,0.0743385,0.814873
0.00363922,0.0187073,-0.374268,0.792156862745098,0.4,0.2078431372549019,-0.583618,0.146061,0.798784
0.00539017,0.0186157,-0.372314,0.8117647058823529,0.4196078431372549,0.2196078431372549,-0.586052,0.146356,0.796946
0.00714493,0.0185699,-0.371338,0.8352941176470589,0.4705882352941176,0.2784313725490196,-0.468793,0.234734,0.851547
0.00888062,0.0185089,-0.370361,0.8509803921568627,0.5019607843137255,0.3215686274509804,-0.469882,0.236301,0.850513
0.0106201,0.0184631,-0.369385,0.7803921568627451,0.4313725490196078,0.2784313725490196,-0.257535,0.256792,0.931522
0.0123749,0.0184631,-0.369385,0.7725490196078432,0.4666666666666667,0.3176470588235294,-0.348741,0.0871853,0.933155
0.0140915,0.0184174,-0.368408,0.7450980392156863,0.4274509803921568,0.2705882352941176,-0.179573,0.179182,0.967289
0.0158386,0.0184174,-0.368408,0.7607843137254902,0.4352941176470588,0.2745098039215686,-0.0921021,0.0917017,0.991518
0.0175934,0.0184174,-0.368408,0.6823529411764706,0.3333333333333333,0.1803921568627451,0.0,0.0,1.0
0.0193481,0.0184174,-0.368408,0.6352941176470588,0.2862745098039215,0.1333333333333333,0.333958,0.167705,0.927549
0.0211639,0.0184631,-0.369385,0.615686274509804,0.2901960784313726,0.1372549019607843,0.178643,0.0900981,0.97978
0.0229187,0.0184631,-0.369385,0.6078431372549019,0.2901960784313726,0.1333333333333333,0.263815,0.0,0.964573
-0.00352097,0.0171204,-0.378418,0.8784313725490196,0.5764705882352941,0.396078431372549,-0.475984,0.0,0.879454
-0.00171661,0.0170746,-0.377441,0.8588235294117647,0.5137254901960784,0.3333333333333333,-0.476976,0.0,0.878916
7.80225e-05,0.0170288,-0.376465,0.9254901960784314,0.5725490196078431,0.4274509803921568,-0.573434,0.0740519,0.815898
0.00186348,0.016983,-0.375244,0.9137254901960784,0.5568627450980392,0.4313725490196078,-0.616371,0.140716,0.774781
0.00362968,0.0168915,-0.373291,0.9647058823529412,0.611764705882353,0.4862745098039215,-0.583943,0.146221,0.798518
0.00539017,0.0168457,-0.372314,0.9686274509803922,0.6274509803921569,0.4901960784313725,-0.541,0.0772858,0.837464
0.00714493,0.0167999,-0.371338,0.8627450980392157,0.5254901960784314,0.3764705882352941,-0.488311,0.0,0.872669
0.00888062,0.0167542,-0.370361,0.8196078431372549,0.4705882352941176,0.3176470588235294,-0.489944,0.0,0.871754
0.0106201,0.0167084,-0.369385,0.8274509803921568,0.5176470588235295,0.3686274509803922,-0.347416,0.086854,0.93368
0.0123749,0.0167084,-0.369385,0.7764705882352941,0.4666666666666667,0.3333333333333333,-0.179329,0.178939,0.967379
0.0140915,0.0166626,-0.368408,0.7490196078431373,0.4431372549019607,0.3098039215686274,-0.271359,0.0,0.962478
0.0158386,0.0166626,-0.368408,0.7098039215686275,0.388235294117647,0.2431372549019607,0.0,0.0,1.0
0.0175934,0.0166626,-0.368408,0.6784313725490196,0.3490196078431372,0.2078431372549019,0.0,0.0,1.0
0.0193481,0.0166626,-0.368408,0.6784313725490196,0.3411764705882353,0.192156862745098,0.178906,0.0894531,0.979791
0.0211639,0.0167084,-0.369385,0.6274509803921569,0.2901960784313726,0.1411764705882353,0.333605,0.166802,0.927839
-0.00539017,0.0155182,-0.383301,0.7333333333333333,0.4705882352941176,0.3137254901960784,-0.915622,0.183897,0.357516
-0.00352097,0.0153198,-0.378418,0.8980392156862745,0.5098039215686274,0.3254901960784314,-0.700552,0.26359,0.663135
-0.00171661,0.015274,-0.377441,0.9372549019607844,0.5882352941176471,0.4078431372549019,-0.473307,0.245909,0.845878
7.80225e-05,0.0152359,-0.376465,0.9607843137254902,0.611764705882353,0.4588235294117647,-0.599039,0.176402,0.781048
0.00185871,0.015152,-0.374268,0.9294117647058824,0.5725490196078431,0.4392156862745098,-0.616633,0.140776,0.774562
0.00362968,0.0151138,-0.373291,0.9490196078431372,0.5803921568627451,0.4509803921568627,-0.539329,0.0769172,0.838575
0.00539017,0.0150757,-0.372314,0.9215686274509804,0.5529411764705883,0.4235294117647059,-0.485682,0.0,0.874135
0.00714493,0.0150299,-0.371338,0.8901960784313725,0.5411764705882353,0.396078431372549,-0.488311,0.0,0.872669
0.00888062,0.0149918,-0.370361,0.8196078431372549,0.4823529411764706,0.3254901960784314,-0.489944,0.0,0.871754
0.0106201,0.0149536,-0.369385,0.8549019607843137,0.5607843137254902,0.4078431372549019,-0.49117,0.0,0.871064
0.0123444,0.0149078,-0.368408,0.7686274509803922,0.4588235294117647,0.3254901960784314,-0.179313,0.179313,0.967313
0.0140915,0.0149078,-0.368408,0.7450980392156863,0.4352941176470588,0.3137254901960784,-0.092431,0.0920291,0.991457
0.0158386,0.0149078,-0.368408,0.7019607843137254,0.3725490196078431,0.2313725490196078,0.0,0.0,1.0
0.0175934,0.0149078,-0.368408,0.6862745098039216,0.3372549019607843,0.192156862745098,0.0,0.0,1.0
0.0193481,0.0149078,-0.368408,0.6352941176470588,0.2862745098039215,0.1333333333333333,0.0,0.0,1.0
0.0211029,0.0149078,-0.368408,0.6235294117647059,0.2862745098039215,0.1294117647058823,0.333807,0.166903,0.927748
-0.00537872,0.0136642,-0.382324,0.8509803921568627,0.5294117647058824,0.3411764705882353,-0.927189,0.0480637,0.371496
-0.00351143,0.0134811,-0.377441,0.976470588235294,0.611764705882353,0.4196078431372549,-0.837328,0.139982,0.528476
-0.0017128,0.013443,-0.376465,0.9176470588235294,0.5686274509803921,0.388235294117647,-0.504965,0.224295,0.833488
7.78437e-05,0.0134125,-0.375244,0.9882352941176472,0.6392156862745098,0.4941176470588235,-0.487843,0.262424,0.832552
0.00185871,0.0133743,-0.374268,0.9803921568627452,0.6392156862745098,0.5019607843137255,-0.549149,0.0947617,0.830335
0.00362968,0.0133362,-0.373291,0.9647058823529412,0.6078431372549019,0.4745098039215686,-0.483977,0.0,0.875081
0.00539017,0.0133057,-0.372314,0.9254901960784314,0.5686274509803921,0.4431372549019607,-0.541899,0.0776044,0.836853
0.00714493,0.0132675,-0.371338,0.9058823529411764,0.5647058823529412,0.4352941176470588,-0.470897,0.235618,0.850141
0.00888062,0.0132294,-0.370361,0.8431372549019608,0.5137254901960784,0.3803921568627451,-0.415147,0.166167,0.89445
0.0106201,0.0131912,-0.369385,0.8117647058823529,0.4823529411764706,0.3411764705882353,-0.491171,0.0,0.871063
0.0123444,0.0131607,-0.368408,0.7529411764705882,0.403921568627451,0.2588235294117647,-0.27099,0.0,0.962582
0.0140915,0.0131607,-0.368408,0.7411764705882353,0.4313725490196078,0.2901960784313726,-0.0926958,0.0922928,0.991408
0.0158386,0.0131607,-0.368408,0.7215686274509804,0.4,0.2627450980392157,0.0,0.26664,0.963796
0.0175934,0.0131607,-0.368408,0.6784313725490196,0.3411764705882353,0.192156862745098,0.0901319,0.180264,0.97948
0.0193481,0.0131607,-0.368408,0.6313725490196078,0.2823529411764706,0.1098039215686274,0.0,0.0,1.0
-0.388428,0.0187378,-0.60498,0.6078431372549019,0.6039215686274509,0.611764705882353,0.250875,0.122443,0.960245
-0.330322,0.0204773,-0.661133,0.6078431372549019,0.6078431372549019,0.6078431372549019,0.813829,0.546886,0.196464
-0.00537872,0.0118408,-0.382324,0.8549019607843137,0.4980392156862745,0.2666666666666666,-0.902395,0.139463,0.407716
-0.00351143,0.0116882,-0.377441,1.0,0.6235294117647059,0.4352941176470588,-0.848186,0.0,0.529699
-0.0017128,0.0116577,-0.376465,0.9372549019607844,0.5176470588235295,0.3333333333333333,-0.52208,0.0,0.852896
7.78437e-05,0.0116196,-0.375244,1.0,0.6431372549019608,0.5137254901960784,-0.524025,0.0,0.851703
0.00185871,0.0115891,-0.374268,1.0,0.6901960784313725,0.5803921568627451,-0.53751,0.0767695,0.839756
0.00362968,0.0115585,-0.373291,0.976470588235294,0.6509803921568628,0.5333333333333333,-0.467922,0.233751,0.852297
0.00539017,0.011528,-0.372314,0.9529411764705882,0.6235294117647059,0.4901960784313725,-0.588522,0.147051,0.794995
0.00712204,0.011467,-0.370361,0.8313725490196079,0.4941176470588235,0.3450980392156862,-0.590855,0.147873,0.79311
0.00885773,0.0114365,-0.369385,0.8117647058823529,0.4627450980392157,0.3098039215686274,-0.326915,0.32727,0.886578
0.0106201,0.0114365,-0.369385,0.7764705882352941,0.4274509803921568,0.2745098039215686,-0.258067,0.258815,0.930815
0.0123444,0.0114059,-0.368408,0.7843137254901961,0.4588235294117647,0.3058823529411765,-0.350314,0.0871977,0.932565
0.0140915,0.0114059,-0.368408,0.7254901960784313,0.3764705882352941,0.2235294117647059,-0.180813,0.180025,0.966901
0.0157928,0.0113754,-0.367432,0.6862745098039216,0.3333333333333333,0.1803921568627451,-0.180291,0.180291,0.966949
0.0175476,0.0113754,-0.367432,0.6627450980392157,0.3137254901960784,0.1686274509803921,0.168385,0.337504,0.926141
0.0193481,0.0114059,-0.368408,0.6235294117647059,0.2705882352941176,0.1176470588235294,0.254116,0.254485,0.933093
0.0211029,0.0114059,-0.368408,0.615686274509804,0.2549019607843137,0.0941176470588235,0.0,0.0,1.0
-0.390137,0.0158081,-0.603027,0.6078431372549019,0.6039215686274509,0.6039215686274509,0.254532,0.129888,0.958302
-0.00534821,0.00997162,-0.380371,0.8823529411764706,0.4862745098039215,0.2235294117647059,-0.722966,0.45712,0.518035
-0.00351143,0.0098877,-0.377441,1.0,0.5843137254901961,0.3215686274509804,-0.77488,0.110111,0.622445
-0.0017128,0.00986481,-0.376465,0.9568627450980391,0.5098039215686274,0.2745098039215686,-0.572555,0.0738173,0.816536
7.78437e-05,0.00983429,-0.375244,0.9529411764705882,0.5098039215686274,0.3058823529411765,-0.508495,0.225742,0.830947
0.00185871,0.0098114,-0.374268,0.9333333333333332,0.5607843137254902,0.4156862745098039,-0.583951,0.14612,0.79853
0.00362015,0.009758,-0.372314,0.9176470588235294,0.5647058823529412,0.4313725490196078,-0.586541,0.146596,0.796543
0.00537491,0.00973511,-0.371338,0.9372549019607844,0.5803921568627451,0.4470588235294118,-0.470368,0.235184,0.850554
0.00712204,0.00970459,-0.370361,0.8470588235294118,0.5058823529411764,0.3686274509803922,-0.545267,0.0778953,0.834635
0.00885773,0.0096817,-0.369385,0.803921568627451,0.4666666666666667,0.3098039215686274,-0.490761,0.0,0.871294
0.0105896,0.00965118,-0.368408,0.8,0.4627450980392157,0.3137254901960784,-0.258524,0.259651,0.930455
0.0123444,0.00965118,-0.368408,0.7333333333333333,0.4078431372549019,0.2549019607843137,-0.260238,0.260238,0.929813
0.0140533,0.0096283,-0.367432,0.7372549019607844,0.4117647058823529,0.2509803921568627,-0.181059,0.18027,0.966809
0.0157928,0.0096283,-0.367432,0.7411764705882353,0.4313725490196078,0.2823529411764706,-0.0924313,0.0920276,0.991457
0.0175476,0.0096283,-0.367432,0.7254901960784313,0.4,0.2470588235294117,0.0,0.0,1.0
0.0193024,0.0096283,-0.367432,0.6431372549019608,0.2941176470588235,0.1215686274509803,0.254929,0.254929,0.93275
0.0211029,0.00965118,-0.368408,0.6274509803921569,0.2588235294117647,0.0941176470588235,0.254142,0.254142,0.933179
-0.00533676,0.00814056,-0.379395,0.9098039215686274,0.5098039215686274,0.2745098039215686,-0.730154,0.265281,0.629683
-0.00351143,0.00809479,-0.377441,0.9647058823529412,0.5215686274509804,0.2588235294117647,-0.649464,0.269586,0.710999
-0.0017128,0.0080719,-0.376465,0.9725490196078432,0.5294117647058824,0.2666666666666666,-0.599289,0.17655,0.780822
7.76052e-05,0.00802612,-0.374268,0.8784313725490196,0.4470588235294118,0.2078431372549019,-0.616477,0.140875,0.774667
0.00185394,0.00801086,-0.373291,0.9333333333333332,0.5372549019607843,0.3568627450980392,-0.467259,0.233473,0.852736
0.00362015,0.00798798,-0.372314,0.8980392156862745,0.5490196078431373,0.3764705882352941,-0.541013,0.0773054,0.837454
0.00537491,0.00796509,-0.371338,0.8823529411764706,0.5333333333333333,0.3607843137254902,-0.543608,0.0776583,0.835739
0.00712204,0.0079422,-0.370361,0.8627450980392157,0.4941176470588235,0.3294117647058823,-0.473281,0.236469,0.84858
0.00885773,0.00791931,-0.369385,0.8274509803921568,0.4392156862745098,0.2627450980392157,-0.41705,0.166711,0.893463
0.0105896,0.00790405,-0.368408,0.7803921568627451,0.403921568627451,0.2235294117647059,-0.492816,0.0,0.870134
0.0123062,0.00788116,-0.367432,0.792156862745098,0.4549019607843137,0.2980392156862745,-0.180276,0.18067,0.966881
0.0140533,0.00788116,-0.367432,0.7490196078431373,0.403921568627451,0.2392156862745098,-0.201862,0.201373,0.958489
0.0157928,0.00788116,-0.367432,0.6901960784313725,0.3215686274509804,0.1490196078431372,0.112003,0.224007,0.96813
0.0175476,0.00788116,-0.367432,0.6901960784313725,0.3019607843137254,0.1176470588235294,0.0,0.0,1.0
0.0193024,0.00788116,-0.367432,0.6549019607843137,0.2823529411764706,0.0823529411764705,0.0,0.0,1.0
0.0210419,0.00788116,-0.367432,0.6274509803921569,0.2549019607843137,0.0549019607843137,0.254588,0.254959,0.932835
-0.392334,0.0100555,-0.602051,0.615686274509804,0.615686274509804,0.615686274509804,0.318135,0.260616,0.91152
-0.0053215,0.00631714,-0.378418,0.9294117647058824,0.4862745098039215,0.2313725490196078,-0.643515,0.256096,0.72132
-0.00350189,0.00628281,-0.376465,1.0,0.5490196078431373,0.2784313725490196,-0.64494,0.198325,0.738051
-0.00170803,0.00626755,-0.375244,1.0,0.5843137254901961,0.3568627450980392,-0.488678,0.263314,0.831781
7.76052e-05,0.00624847,-0.374268,0.9490196078431372,0.5215686274509804,0.3058823529411765,-0.592752,0.161933,0.788938
0.00185394,0.00623322,-0.373291,0.9490196078431372,0.5294117647058824,0.3372549019607843,-0.468121,0.234003,0.852118
0.00362015,0.00621796,-0.372314,0.9411764705882352,0.5647058823529412,0.3764705882352941,-0.47003,0.234762,0.850858
0.00537491,0.00619888,-0.371338,0.8705882352941177,0.5254901960784314,0.3607843137254902,-0.590604,0.147291,0.793406
0.00710297,0.00616455,-0.369385,0.8627450980392157,0.5254901960784314,0.3686274509803922,-0.592801,0.14824,0.791588
0.00883484,0.00614929,-0.368408,0.807843137254902,0.4823529411764706,0.3294117647058823,-0.32915,0.329509,0.88492
0.0105896,0.00614929,-0.368408,0.803921568627451,0.4784313725490196,0.3254901960784314,-0.260334,0.260145,0.929812
0.0123062,0.00613403,-0.367432,0.7450980392156863,0.396078431372549,0.2431372549019607,-0.369668,0.108489,0.922809
0.0140533,0.00613403,-0.367432,0.7254901960784313,0.3490196078431372,0.1686274509803921,-0.221923,0.222165,0.949417
0.0157623,0.00611496,-0.366211,0.7058823529411765,0.3490196078431372,0.1529411764705882,0.0,0.328521,0.944497
0.0175476,0.00613403,-0.367432,0.7215686274509804,0.3803921568627451,0.188235294117647,0.203952,0.40835,0.889749
0.0193024,0.00613403,-0.367432,0.792156862745098,0.5019607843137255,0.3372549019607843,0.111978,0.223468,0.968258
0.0210419,0.00613403,-0.367432,0.6862745098039216,0.3529411764705882,0.1686274509803921,0.0,0.0,1.0
-0.319336,0.00801086,-0.671387,0.6078431372549019,0.6039215686274509,0.611764705882353,0.762719,0.51018,0.397462
-0.00714111,0.00452805,-0.379395,0.9647058823529412,0.596078431372549,0.3607843137254902,-0.61171,0.203831,0.764371
-0.00530624,0.00450516,-0.377441,0.9607843137254902,0.5294117647058824,0.2509803921568627,-0.554677,0.110558,0.824688
-0.00350189,0.00449371,-0.376465,1.0,0.5490196078431373,0.2784313725490196,-0.613043,0.139958,0.777554
-0.00170803,0.00448227,-0.375244,0.9882352941176472,0.5411764705882353,0.3137254901960784,-0.508805,0.22599,0.83069
7.76052e-05,0.00446701,-0.374268,0.9568627450980391,0.5294117647058824,0.3137254901960784,-0.583554,0.145989,0.798844
0.00184822,0.00444412,-0.372314,0.9411764705882352,0.5215686274509804,0.3215686274509804,-0.585895,0.146577,0.797021
0.00361061,0.00443268,-0.371338,0.8980392156862745,0.4941176470588235,0.3137254901960784,-0.470623,0.235227,0.850402
0.00536346,0.00442123,-0.370361,0.8627450980392157,0.4666666666666667,0.2862745098039215,-0.472821,0.235942,0.848983
0.00710297,0.00440979,-0.369385,0.8117647058823529,0.4627450980392157,0.2823529411764706,-0.547014,0.0778903,0.833492
0.00883484,0.00439835,-0.368408,0.8156862745098039,0.4784313725490196,0.3294117647058823,-0.491993,0.0,0.870599
0.0105591,0.00438309,-0.367432,0.7411764705882353,0.403921568627451,0.2549019607843137,-0.27883,0.279228,0.91885
0.0123062,0.00438309,-0.367432,0.7137254901960784,0.3529411764705882,0.1764705882352941,-0.29812,0.297586,0.906955
0.0140152,0.00437164,-0.366211,0.7058823529411765,0.3294117647058823,0.1411764705882353,-0.222222,0.222343,0.949306
0.0157623,0.00437164,-0.366211,0.6901960784313725,0.2980392156862745,0.1058823529411764,-0.115408,0.11566,0.986562
0.0175018,0.00437164,-0.366211,0.6509803921568628,0.2901960784313726,0.1137254901960784,0.112378,0.224265,0.968027
0.0192413,0.00437164,-0.366211,0.6392156862745098,0.2941176470588235,0.1215686274509803,0.204511,0.408352,0.88962
0.402832,0.00886536,-0.742676,0.6078431372549019,0.6196078431372549,0.615686274509804,-0.0719835,-0.656714,0.750697
-0.00712204,0.00271797,-0.378418,0.8823529411764706,0.4941176470588235,0.2196078431372549,-0.557703,0.278889,0.781785
-0.00530624,0.00271034,-0.377441,0.9568627450980391,0.5254901960784314,0.2470588235294117,-0.519002,0.304217,0.798805
-0.00350189,0.00270271,-0.376465,0.976470588235294,0.5137254901960784,0.2392156862745098,-0.599144,0.176636,0.780913
-0.00170326,0.00268745,-0.374268,0.9803921568627452,0.5176470588235295,0.2509803921568627,-0.616244,0.140666,0.774891
7.74264e-05,0.00268173,-0.373291,0.9647058823529412,0.5294117647058824,0.3176470588235294,-0.467397,0.233782,0.852576
0.00184822,0.0026741,-0.372314,0.9254901960784314,0.5176470588235295,0.3215686274509804,-0.586713,0.146767,0.796384
0.00361061,0.00266647,-0.371338,0.8901960784313725,0.4980392156862745,0.3058823529411765,-0.471559,0.23596,0.849679
0.00536346,0.00265884,-0.370361,0.8431372549019608,0.4509803921568627,0.2431372549019607,-0.47382,0.23676,0.848198
0.00710297,0.00265312,-0.369385,0.8352941176470589,0.4705882352941176,0.2784313725490196,-0.475892,0.237633,0.846792
0.00883484,0.00264549,-0.368408,0.8274509803921568,0.4901960784313725,0.3411764705882353,-0.418909,0.167527,0.892441
0.0105591,0.00263786,-0.367432,0.7647058823529411,0.4274509803921568,0.2705882352941176,-0.53816,0.0,0.842843
0.0122757,0.00263023,-0.366211,0.7490196078431373,0.4,0.2549019607843137,-0.222523,0.222493,0.9492
0.0140152,0.00263023,-0.366211,0.6941176470588235,0.3333333333333333,0.1647058823529411,-0.115337,0.11521,0.986623
0.0157623,0.00263023,-0.366211,0.6901960784313725,0.3137254901960784,0.1254901960784313,0.0,0.0,1.0
0.0175018,0.00263023,-0.366211,0.7176470588235294,0.3725490196078431,0.192156862745098,0.0,0.0,1.0
0.0192413,0.00263023,-0.366211,0.611764705882353,0.2313725490196078,0.0627450980392156,0.0,0.0,1.0
0.0209808,0.00263023,-0.366211,0.6627450980392157,0.2980392156862745,0.1137254901960784,0.40521,0.202979,0.891406
-0.318115,0.00160599,-0.662109,0.611764705882353,0.611764705882353,0.596078431372549,0.834863,0.51475,0.195028
-0.192383,0.00163555,-0.674316,0.6078431372549019,0.6078431372549019,0.615686274509804,-0.748406,0.0,0.663242
-0.00712204,0.000917435,-0.378418,0.8549019607843137,0.4627450980392157,0.2235294117647059,-0.659892,0.131719,0.739724
-0.00529099,0.000912666,-0.376465,1.0,0.6313725490196078,0.4235294117647059,-0.611827,0.139555,0.778584
-0.00349426,0.000910282,-0.375244,0.9686274509803922,0.5176470588235295,0.2470588235294117,-0.489329,0.263585,0.831312
-0.00170326,0.000907421,-0.374268,0.9803921568627452,0.5137254901960784,0.2588235294117647,-0.592575,0.16188,0.789081
7.74264e-05,0.000905037,-0.373291,0.9647058823529412,0.5215686274509804,0.3098039215686274,-0.468529,0.234257,0.851824
0.00184822,0.000902653,-0.372314,0.9098039215686274,0.4784313725490196,0.2823529411764706,-0.587556,0.146877,0.795742
0.00360107,0.000897884,-0.370361,0.8705882352941177,0.4627450980392157,0.2588235294117647,-0.589889,0.147487,0.793901
0.00534821,0.0008955,-0.369385,0.8549019607843137,0.4509803921568627,0.2352941176470588,-0.474527,0.237306,0.84765
0.00708389,0.000893116,-0.368408,0.8549019607843137,0.4901960784313725,0.2980392156862745,-0.476558,0.238009,0.846312
0.00881195,0.000890732,-0.367432,0.7647058823529411,0.396078431372549,0.2392156862745098,-0.347321,0.347137,0.871128
0.0105591,0.000890732,-0.367432,0.7568627450980392,0.388235294117647,0.2313725490196078,-0.297831,0.298092,0.906884
0.0122757,0.000888348,-0.366211,0.7372549019607844,0.3764705882352941,0.2078431372549019,-0.33316,0.0,0.94287
0.0140152,0.000888348,-0.366211,0.6901960784313725,0.3254901960784314,0.1411764705882353,-0.0930031,0.0932321,0.991291
0.0157623,0.000888348,-0.366211,0.7137254901960784,0.3803921568627451,0.2039215686274509,0.0,0.269834,0.962907
0.0175018,0.000888348,-0.366211,0.611764705882353,0.2509803921568627,0.0745098039215686,0.0912703,0.182191,0.979018
0.0192413,0.000888348,-0.366211,0.6313725490196078,0.2509803921568627,0.0823529411764705,0.0,0.0,1.0
-0.393311,-0.00139713,-0.599121,0.6196078431372549,0.615686274509804,0.615686274509804,0.476779,0.140059,0.867793
-0.322754,-0.00149345,-0.640137,0.615686274509804,0.6039215686274509,0.5843137254901961,0.81377,0.516302,0.266853
-0.00710297,-0.000880241,-0.377441,0.9176470588235294,0.5176470588235295,0.2745098039215686,-0.468779,0.156038,0.869424
-0.00529099,-0.000877857,-0.376465,0.9411764705882352,0.4980392156862745,0.2509803921568627,-0.570735,0.0737255,0.817818
-0.00349426,-0.000875473,-0.375244,0.9647058823529412,0.5098039215686274,0.2509803921568627,-0.522316,0.0,0.852752
-0.00170326,-0.000873089,-0.374268,0.9411764705882352,0.4980392156862745,0.2352941176470588,-0.634051,0.0,0.773291
7.7188e-05,-0.00086832,-0.372314,0.9372549019607844,0.5058823529411764,0.2745098039215686,-0.585619,0.146429,0.797251
0.00184345,-0.000866413,-0.371338,0.8941176470588236,0.4862745098039215,0.2823529411764706,-0.471035,0.235597,0.85007
0.00360107,-0.000864029,-0.370361,0.8705882352941177,0.4784313725490196,0.2784313725490196,-0.543683,0.0776781,0.835688
0.00534821,-0.000861645,-0.369385,0.8392156862745098,0.4509803921568627,0.2313725490196078,-0.489126,0.0,0.872213
0.00708389,-0.000859261,-0.368408,0.8470588235294118,0.4745098039215686,0.2666666666666666,-0.491171,0.0,0.871063
0.00881195,-0.000856876,-0.367432,0.8862745098039215,0.5529411764705883,0.3843137254901961,-0.537744,0.0,0.843108
0.0105286,-0.000854492,-0.366211,0.7490196078431373,0.4,0.2352941176470588,-0.222456,0.222669,0.949174
0.0122757,-0.000854492,-0.366211,0.7843137254901961,0.4509803921568627,0.2745098039215686,-0.202677,0.202757,0.958025
0.0140152,-0.000854492,-0.366211,0.7215686274509804,0.4,0.2196078431372549,-0.182232,0.182132,0.96624
0.0157166,-0.000852108,-0.365234,0.7058823529411765,0.3843137254901961,0.2039215686274509,-0.182094,0.182393,0.966217
0.0174561,-0.000852108,-0.365234,0.7137254901960784,0.3764705882352941,0.2196078431372549,0.258142,0.257859,0.931059
0.0192413,-0.000854492,-0.366211,0.6352941176470588,0.2862745098039215,0.1333333333333333,0.181684,0.0906556,0.979169
0.0209808,-0.000854492,-0.366211,0.611764705882353,0.2901960784313726,0.1176470588235294,0.222978,0.112236,0.968341
0.789062,-0.00327682,-1.40527,0.6235294117647059,0.6235294117647059,0.6078431372549019,-0.927696,0.332227,-0.170312
-0.326416,-0.00442505,-0.624023,0.611764705882353,0.592156862745098,0.5843137254901961,0.735228,0.572169,0.363403
-0.325195,-0.00444794,-0.627441,0.6313725490196078,0.611764705882353,0.596078431372549,0.779972,0.532924,0.328079
-0.322754,-0.00449753,-0.634277,0.6078431372549019,0.596078431372549,0.5764705882352941,0.835389,0.463652,0.295216
-0.00710297,-0.00267601,-0.377441,0.8941176470588236,0.4745098039215686,0.2196078431372549,-0.474431,0.0,0.880293
-0.00529099,-0.00266838,-0.376465,0.9333333333333332,0.4901960784313725,0.2274509803921568,-0.520027,0.0,0.85415
-0.00349426,-0.00266075,-0.375244,0.9098039215686274,0.4666666666666667,0.2039215686274509,-0.57383,0.0740649,0.815618
-0.00170326,-0.00265312,-0.374268,0.9019607843137256,0.4666666666666667,0.2078431372549019,-0.583523,0.145961,0.798872
7.7188e-05,-0.00263977,-0.372314,0.8901960784313725,0.4666666666666667,0.2313725490196078,-0.637017,0.0,0.77085
0.00184345,-0.00263214,-0.371338,0.8588235294117647,0.4549019607843137,0.2313725490196078,-0.484771,0.0,0.874641
0.00360107,-0.00262451,-0.370361,0.8392156862745098,0.4431372549019607,0.2156862745098039,-0.486792,0.0,0.873518
0.00534821,-0.00261879,-0.369385,0.8235294117647058,0.4274509803921568,0.2078431372549019,-0.489126,0.0,0.872213
0.00708389,-0.00261116,-0.368408,0.788235294117647,0.3843137254901961,0.1686274509803921,-0.491171,0.0,0.871063
0.00881195,-0.00260353,-0.367432,0.7843137254901961,0.388235294117647,0.1686274509803921,-0.53773,0.0,0.843117
0.0105286,-0.00259781,-0.366211,0.7529411764705882,0.3686274509803922,0.1568627450980392,-0.33259,0.0,0.943072
0.0122757,-0.00259781,-0.366211,0.7490196078431373,0.3764705882352941,0.1764705882352941,-0.272285,0.0,0.962217
0.0139771,-0.00259018,-0.365234,0.7176470588235294,0.3568627450980392,0.1450980392156863,-0.182401,0.182401,0.966157
0.0157166,-0.00259018,-0.365234,0.6980392156862745,0.3372549019607843,0.1333333333333333,-0.0931764,0.0932531,0.991273
0.0174561,-0.00259018,-0.365234,0.6862745098039216,0.3254901960784314,0.1215686274509803,0.181766,0.0910201,0.97912
0.0192413,-0.00259781,-0.366211,0.6274509803921569,0.2627450980392157,0.0705882352941176,0.340572,0.170321,0.924663
-0.00710297,-0.00447083,-0.377441,0.9098039215686274,0.4901960784313725,0.2274509803921568,-0.474431,0.0,0.880293
-0.00529099,-0.00445938,-0.376465,0.9058823529411764,0.4705882352941176,0.2039215686274509,-0.520023,0.0,0.854153
-0.00349426,-0.00444794,-0.375244,0.8980392156862745,0.4627450980392157,0.196078431372549,-0.661982,0.0,0.74952
-0.00169849,-0.00442123,-0.373291,0.8980392156862745,0.4705882352941176,0.2117647058823529,-0.583914,0.145898,0.798597
7.7188e-05,-0.00440979,-0.372314,0.8862745098039215,0.4745098039215686,0.2352941176470588,-0.539602,0.0770419,0.838388
0.00184345,-0.00439835,-0.371338,0.8274509803921568,0.4274509803921568,0.192156862745098,-0.54214,0.0775144,0.836705
0.00360107,-0.0043869,-0.370361,0.8274509803921568,0.4274509803921568,0.192156862745098,-0.474546,0.237144,0.847685
0.00534821,-0.00437546,-0.369385,0.796078431372549,0.3843137254901961,0.1450980392156863,-0.476495,0.238248,0.84628
0.00708389,-0.00436401,-0.368408,0.7803921568627451,0.3686274509803922,0.1215686274509803,-0.419521,0.167772,0.892107
0.00881195,-0.00435257,-0.367432,0.7647058823529411,0.3647058823529411,0.1294117647058823,-0.537742,0.0,0.84311
0.0105286,-0.00433731,-0.366211,0.7333333333333333,0.3294117647058823,0.1058823529411764,-0.332549,0.0,0.943086
0.0122757,-0.00433731,-0.366211,0.7176470588235294,0.3215686274509804,0.1019607843137254,-0.272471,0.0,0.962164
0.0139771,-0.00432587,-0.365234,0.7137254901960784,0.3176470588235294,0.0980392156862745,-0.27303,0.0,0.962005
0.0157166,-0.00432587,-0.365234,0.6862745098039216,0.2862745098039215,0.0784313725490196,0.0,0.0,1.0
0.0174561,-0.00432587,-0.365234,0.6470588235294118,0.2470588235294117,0.0549019607843137,0.0,0.0,1.0
0.0191956,-0.00432587,-0.365234,0.6352941176470588,0.2431372549019607,0.0509803921568627,0.340804,0.170402,0.924563
0.0209808,-0.00433731,-0.366211,0.6078431372549019,0.2352941176470588,0.0352941176470588,0.181077,0.0904391,0.979302
0.79541,-0.0163574,-1.38086,0.6078431372549019,0.6431372549019608,0.615686274509804,-0.157644,-0.160085,0.974434
-0.00710297,-0.00626755,-0.377441,0.8901960784313725,0.4705882352941176,0.2078431372549019,-0.574775,-0.143617,0.80561
-0.00529099,-0.00624847,-0.376465,0.9058823529411764,0.4745098039215686,0.196078431372549,-0.520015,0.0,0.854157
-0.00349426,-0.00623322,-0.375244,0.9137254901960784,0.4745098039215686,0.2,-0.661966,0.0,0.749534
-0.00169849,-0.00619888,-0.373291,0.9019607843137256,0.4745098039215686,0.2235294117647059,-0.634444,0.0,0.772969
7.7188e-05,-0.00618362,-0.372314,0.8862745098039215,0.4745098039215686,0.2352941176470588,-0.482877,0.0,0.875688
0.00184345,-0.00616455,-0.371338,0.8509803921568627,0.4509803921568627,0.2156862745098039,-0.640091,0.0,0.768299
0.00359154,-0.00613403,-0.369385,0.807843137254902,0.4156862745098039,0.1686274509803921,-0.592363,0.148091,0.791944
0.00533295,-0.00611496,-0.368408,0.792156862745098,0.3803921568627451,0.1333333333333333,-0.477363,0.238768,0.845645
0.00706482,-0.0060997,-0.367432,0.7725490196078432,0.3529411764705882,0.0901960784313725,-0.261876,0.262066,0.928839
0.00881195,-0.0060997,-0.367432,0.7647058823529411,0.3529411764705882,0.1137254901960784,-0.407031,0.0858388,0.909372
0.0105286,-0.00608063,-0.366211,0.7333333333333333,0.3294117647058823,0.1137254901960784,-0.332603,0.0,0.943067
0.0122757,-0.00608063,-0.366211,0.7176470588235294,0.3137254901960784,0.0980392156862745,-0.272378,0.0,0.96219
0.0139771,-0.00606537,-0.365234,0.7019607843137254,0.2980392156862745,0.0823529411764705,-0.273124,0.0,0.961979
0.0157166,-0.00606537,-0.365234,0.6745098039215687,0.2666666666666666,0.0705882352941176,0.0,0.0,1.0
0.0174561,-0.00606537,-0.365234,0.6705882352941176,0.2705882352941176,0.0784313725490196,0.0,0.0,1.0
0.0191956,-0.00606537,-0.365234,0.6470588235294118,0.2470588235294117,0.0549019607843137,0.266998,0.0,0.963697
0.0209808,-0.00608063,-0.366211,0.611764705882353,0.2196078431372549,0.0274509803921568,0.265929,0.0,0.963993
-0.31958,-0.0134201,-0.628418,0.6313725490196078,0.6313725490196078,0.615686274509804,0.841943,0.469913,0.265168
-0.318115,-0.0134888,-0.631348,0.611764705882353,0.611764705882353,0.596078431372549,0.83645,0.466122,0.288241
-0.00901794,-0.00816345,-0.382324,0.7686274509803922,0.5215686274509804,0.3686274509803922,-0.84275,-0.00266131,0.538299
-0.00712204,-0.00807953,-0.378418,0.8980392156862745,0.4705882352941176,0.2039215686274509,-0.756947,-0.302715,0.579133
-0.00529099,-0.00804138,-0.376465,0.9098039215686274,0.4784313725490196,0.2,-0.643573,-0.197785,0.739389
-0.00349426,-0.00801849,-0.375244,0.9098039215686274,0.4705882352941176,0.196078431372549,-0.661966,0.0,0.749534
-0.00169849,-0.00797272,-0.373291,0.9137254901960784,0.4784313725490196,0.2117647058823529,-0.634311,0.0,0.773078
7.7188e-05,-0.00794983,-0.372314,0.8823529411764706,0.4705882352941176,0.2235294117647059,-0.540398,0.0772202,0.837858
0.00184345,-0.00793457,-0.371338,0.8274509803921568,0.4117647058823529,0.192156862745098,-0.590223,0.147598,0.793632
0.00359154,-0.00788879,-0.369385,0.8274509803921568,0.4117647058823529,0.192156862745098,-0.643181,0.0,0.765714
0.00533295,-0.00786591,-0.368408,0.807843137254902,0.392156862745098,0.1725490196078431,-0.490147,0.0,0.87164
0.00706482,-0.00784302,-0.367432,0.7647058823529411,0.3647058823529411,0.1215686274509803,-0.270348,0.0,0.962763
0.00881195,-0.00784302,-0.367432,0.7490196078431373,0.3490196078431372,0.1058823529411764,-0.332494,0.0,0.943105
0.0105286,-0.00782013,-0.366211,0.7411764705882353,0.3411764705882353,0.1333333333333333,-0.332277,0.0,0.943182
0.0122757,-0.00782013,-0.366211,0.7098039215686275,0.3176470588235294,0.1176470588235294,-0.272285,0.0,0.962217
0.0139771,-0.00780487,-0.365234,0.6980392156862745,0.2980392156862745,0.0980392156862745,-0.273217,0.0,0.961952
0.0157166,-0.00780487,-0.365234,0.6941176470588235,0.3058823529411765,0.1215686274509803,0.0,0.0,1.0
0.0174561,-0.00780487,-0.365234,0.6666666666666666,0.2862745098039215,0.1176470588235294,0.0,0.0,1.0
0.0191956,-0.00780487,-0.365234,0.6431372549019608,0.2549019607843137,0.0784313725490196,0.267177,0.0,0.963647
0.0209808,-0.00782013,-0.366211,0.615686274509804,0.2313725490196078,0.0274509803921568,0.26575,0.0,0.964042
-0.00898743,-0.00995636,-0.381348,0.8196078431372549,0.4901960784313725,0.2941176470588235,-0.71885,-0.120228,0.684689
-0.00714111,-0.00991058,-0.379395,0.8862745098039215,0.4666666666666667,0.2117647058823529,-0.784776,-0.157508,0.599431
-0.00530624,-0.00985718,-0.377441,0.9098039215686274,0.4784313725490196,0.2,-0.73785,-0.173402,0.652311
-0.00349426,-0.00980377,-0.375244,0.9215686274509804,0.4862745098039215,0.2196078431372549,-0.725835,-0.0615092,0.685113
-0.00169849,-0.00975037,-0.373291,0.9058823529411764,0.4705882352941176,0.2196078431372549,-0.634399,0.0,0.773005
7.7188e-05,-0.00972748,-0.372314,0.8745098039215686,0.4627450980392157,0.2156862745098039,-0.63769,0.0,0.770293
0.00183868,-0.00967407,-0.370361,0.8352941176470589,0.4235294117647059,0.1843137254901961,-0.590609,0.147495,0.793364
0.00359154,-0.00964355,-0.369385,0.8235294117647058,0.4235294117647059,0.1725490196078431,-0.545698,0.0778905,0.834354
0.00533295,-0.00962067,-0.368408,0.792156862745098,0.392156862745098,0.1411764705882353,-0.490147,0.0,0.87164
0.00706482,-0.00959015,-0.367432,0.7411764705882353,0.3294117647058823,0.0901960784313725,-0.369062,0.108436,0.923057
0.00881195,-0.00959015,-0.367432,0.7568627450980392,0.3529411764705882,0.1294117647058823,-0.223406,0.223406,0.948778
0.0105286,-0.00956726,-0.366211,0.7372549019607844,0.3490196078431372,0.1294117647058823,-0.408405,0.0861582,0.908726
0.0122757,-0.00956726,-0.366211,0.7176470588235294,0.3333333333333333,0.1294117647058823,-0.182779,0.182779,0.966015
0.0139771,-0.00953674,-0.365234,0.7058823529411765,0.3215686274509804,0.1176470588235294,-0.273217,0.0,0.961952
0.0157166,-0.00953674,-0.365234,0.6901960784313725,0.3137254901960784,0.1254901960784313,0.0,0.0,1.0
0.0174561,-0.00953674,-0.365234,0.6431372549019608,0.2823529411764706,0.1058823529411764,0.0,0.0,1.0
0.0191956,-0.00953674,-0.365234,0.6313725490196078,0.2470588235294117,0.0509803921568627,0.267178,0.0,0.963647
0.0209808,-0.00956726,-0.366211,0.611764705882353,0.2274509803921568,0.0313725490196078,0.26575,0.0,0.964042
-0.0128174,-0.0119629,-0.387451,0.792156862745098,0.4941176470588235,0.3686274509803922,-0.76477,0.0,0.644303
-0.0109177,-0.0119019,-0.385498,0.7568627450980392,0.388235294117647,0.2235294117647059,-0.784526,-0.104277,0.611266
-0.00901794,-0.0118027,-0.382324,0.8784313725490196,0.4666666666666667,0.2274509803921568,-0.776411,-0.225714,0.588421
-0.00716019,-0.0117416,-0.380371,0.9019607843137256,0.4745098039215686,0.2078431372549019,-0.754672,-0.214938,0.619897
-0.00530624,-0.0116501,-0.377441,0.9098039215686274,0.4784313725490196,0.2,-0.801805,-0.152586,0.577777
-0.00349426,-0.0115891,-0.375244,0.9098039215686274,0.4784313725490196,0.2,-0.754746,0.0,0.656017
-0.00169849,-0.011528,-0.373291,0.9019607843137256,0.4705882352941176,0.2313725490196078,-0.634399,0.0,0.773005
7.7188e-05,-0.0114975,-0.372314,0.8823529411764706,0.4588235294117647,0.2235294117647059,-0.63769,0.0,0.770293
0.00183868,-0.0114365,-0.370361,0.807843137254902,0.396078431372549,0.1490196078431372,-0.640502,0.0,0.767957
0.00359154,-0.0114059,-0.369385,0.807843137254902,0.396078431372549,0.1568627450980392,-0.487905,0.0,0.872897
0.00533295,-0.0113754,-0.368408,0.7843137254901961,0.3725490196078431,0.1333333333333333,-0.490147,0.0,0.87164
0.00706482,-0.0113373,-0.367432,0.7568627450980392,0.3568627450980392,0.1215686274509803,-0.536482,0.0,0.843912
0.00878906,-0.0113068,-0.366211,0.7607843137254902,0.3568627450980392,0.1333333333333333,-0.223724,0.223236,0.948743
0.0105286,-0.0113068,-0.366211,0.7411764705882353,0.3450980392156862,0.1254901960784313,-0.371387,0.109119,0.922044
0.0122375,-0.0112762,-0.365234,0.7215686274509804,0.3294117647058823,0.1215686274509803,-0.182768,0.183168,0.965943
0.0139771,-0.0112762,-0.365234,0.7019607843137254,0.3176470588235294,0.1058823529411764,-0.0933623,0.0933623,0.991245
0.0157166,-0.0112762,-0.365234,0.6705882352941176,0.2980392156862745,0.0901960784313725,0.0,0.0,1.0
0.0174561,-0.0112762,-0.365234,0.6627450980392157,0.2901960784313726,0.0901960784313725,0.0,0.0,1.0
0.0191956,-0.0112762,-0.365234,0.6235294117647059,0.2392156862745098,0.0431372549019607,0.267177,0.0,0.963647
0.0209808,-0.0113068,-0.366211,0.6235294117647059,0.2313725490196078,0.0392156862745098,0.26575,0.0,0.964042
-0.318848,-0.0219269,-0.615234,0.6078431372549019,0.6078431372549019,0.6078431372549019,0.738657,0.508489,0.44252
-0.01474,-0.0138779,-0.389404,0.7529411764705882,0.5098039215686274,0.4352941176470588,-0.66463,0.0946678,0.741151
-0.0128174,-0.0138016,-0.387451,0.7803921568627451,0.3647058823529411,0.2588235294117647,-0.740846,0.0571517,0.669239
-0.0109177,-0.0137329,-0.385498,0.7058823529411765,0.2627450980392157,0.0980392156862745,-0.739602,0.0,0.673044
-0.00904083,-0.0136642,-0.383301,0.8862745098039215,0.4588235294117647,0.2078431372549019,-0.817395,-0.097332,0.567795
-0.00716019,-0.0135574,-0.380371,0.9019607843137256,0.4784313725490196,0.2,-0.77331,-0.0552032,0.63162
-0.0053215,-0.0134811,-0.378418,0.9137254901960784,0.4823529411764706,0.196078431372549,-0.823864,-0.0980418,0.558244
-0.00349426,-0.0133743,-0.375244,0.9215686274509804,0.4862745098039215,0.2196078431372549,-0.796774,-0.0537333,0.601883
-0.00169849,-0.0133057,-0.373291,0.9098039215686274,0.4862745098039215,0.2431372549019607,-0.634399,0.0,0.773005
7.7188e-05,-0.0132675,-0.372314,0.8509803921568627,0.4509803921568627,0.2078431372549019,-0.63769,0.0,0.770293
0.00183868,-0.0131989,-0.370361,0.8431372549019608,0.4392156862745098,0.2156862745098039,-0.640502,0.0,0.767957
0.00359154,-0.0131607,-0.369385,0.8117647058823529,0.4156862745098039,0.188235294117647,-0.487906,0.0,0.872896
0.00533295,-0.0131226,-0.368408,0.7843137254901961,0.3803921568627451,0.1568627450980392,-0.490147,0.0,0.87164
0.00706482,-0.013092,-0.367432,0.7686274509803922,0.3647058823529411,0.1411764705882353,-0.536482,0.0,0.843912
0.00878906,-0.0130539,-0.366211,0.7764705882352941,0.388235294117647,0.1607843137254902,-0.332818,0.0,0.942991
0.0105286,-0.0130539,-0.366211,0.7450980392156863,0.3568627450980392,0.1294117647058823,-0.272286,0.0,0.962216
0.0122375,-0.0130157,-0.365234,0.7176470588235294,0.3254901960784314,0.1176470588235294,-0.272657,0.0,0.962111
0.0139771,-0.0130157,-0.365234,0.7019607843137254,0.3098039215686274,0.1019607843137254,0.0,0.0,1.0
0.0157166,-0.0130157,-0.365234,0.6705882352941176,0.2862745098039215,0.0823529411764705,0.0,0.0,1.0
0.0174561,-0.0130157,-0.365234,0.6352941176470588,0.2509803921568627,0.0549019607843137,0.0,0.0,1.0
0.0191956,-0.0130157,-0.365234,0.6352941176470588,0.2509803921568627,0.0470588235294117,0.266998,0.0,0.963697
0.0209808,-0.0130539,-0.366211,0.6078431372549019,0.2235294117647059,0.0117647058823529,0.265929,0.0,0.963993
0.0227356,-0.0130539,-0.366211,0.611764705882353,0.2274509803921568,0.0235294117647058,0.324739,0.0,0.945804
0.783691,-0.0497437,-1.39551,0.615686274509804,0.615686274509804,0.615686274509804,0.212784,-0.182227,0.959956
-0.0185852,-0.0158539,-0.392334,0.7450980392156863,0.6627450980392157,0.6039215686274509,-0.596918,0.198973,0.777238
-0.0166321,-0.0157623,-0.390381,0.7725490196078432,0.5843137254901961,0.5098039215686274,-0.53928,0.0,0.842126
-0.01474,-0.0157318,-0.389404,0.7215686274509804,0.388235294117647,0.3254901960784314,-0.609012,0.0,0.793161
-0.0128174,-0.0156403,-0.387451,0.7372549019607844,0.2901960784313726,0.2039215686274509,-0.714739,0.0,0.699392
-0.0109177,-0.015564,-0.385498,0.6901960784313725,0.2392156862745098,0.0745098039215686,-0.739587,0.0,0.673061
-0.00904083,-0.0154877,-0.383301,0.8666666666666667,0.4431372549019607,0.2,-0.806465,0.0,0.591282
-0.00716019,-0.0153656,-0.380371,0.8862745098039215,0.4627450980392157,0.1843137254901961,-0.795658,0.0,0.605746
-0.0053215,-0.0152817,-0.378418,0.8941176470588236,0.4627450980392157,0.1764705882352941,-0.813259,0.0,0.581902
-0.00349426,-0.0151596,-0.375244,0.8901960784313725,0.4627450980392157,0.2039215686274509,-0.816891,0.0,0.576792
-0.00169849,-0.0150833,-0.373291,0.8745098039215686,0.4549019607843137,0.192156862745098,-0.634489,0.0,0.772932
7.7188e-05,-0.0150375,-0.372314,0.8392156862745098,0.4078431372549019,0.1686274509803921,-0.63769,0.0,0.770293
0.00183868,-0.0149612,-0.370361,0.803921568627451,0.3725490196078431,0.1333333333333333,-0.640412,0.0,0.768032
0.00359154,-0.0149155,-0.369385,0.7843137254901961,0.3607843137254902,0.1254901960784313,-0.487906,0.0,0.872896
0.00533295,-0.0148773,-0.368408,0.7607843137254902,0.3372549019607843,0.1019607843137254,-0.490147,0.0,0.87164
0.00706482,-0.0148392,-0.367432,0.7529411764705882,0.3411764705882353,0.1019607843137254,-0.536482,0.0,0.843912
0.00878906,-0.0147934,-0.366211,0.7529411764705882,0.3607843137254902,0.1137254901960784,-0.332385,0.0,0.943144
0.0105286,-0.0147934,-0.366211,0.7450980392156863,0.3568627450980392,0.1294117647058823,-0.272471,0.0,0.962164
0.0122375,-0.0147552,-0.365234,0.7215686274509804,0.3294117647058823,0.1294117647058823,-0.272471,0.0,0.962164
0.0139771,-0.0147552,-0.365234,0.7098039215686275,0.3176470588235294,0.1176470588235294,0.0,0.0,1.0
0.0157166,-0.0147552,-0.365234,0.6705882352941176,0.2784313725490196,0.0784313725490196,0.0,0.0,1.0
0.0174561,-0.0147552,-0.365234,0.6431372549019608,0.2509803921568627,0.0431372549019607,0.0919658,-0.0919658,0.991506
0.0191956,-0.0147552,-0.365234,0.6235294117647059,0.2392156862745098,0.0352941176470588,0.178241,-0.177851,0.96778
0.0227356,-0.0147934,-0.366211,0.611764705882353,0.2549019607843137,0.0666666666666666,0.217184,-0.21766,0.951554
-0.292969,-0.030899,-0.68457,0.6078431372549019,0.6078431372549019,0.615686274509804,0.84392,0.349729,0.406803
-0.0185394,-0.0176697,-0.391357,0.7647058823529411,0.6,0.5529411764705883,-0.519763,-0.208757,0.828412
-0.0166321,-0.0176239,-0.390381,0.7450980392156863,0.4470588235294118,0.4,-0.559151,-0.0694633,0.826151
-0.01474,-0.0175781,-0.389404,0.7176470588235294,0.3294117647058823,0.2784313725490196,-0.608926,0.0,0.793227
-0.0128174,-0.0174866,-0.387451,0.6980392156862745,0.2431372549019607,0.1607843137254902,-0.71474,0.0,0.69939
-0.00904083,-0.0173035,-0.383301,0.8705882352941177,0.4431372549019607,0.192156862745098,-0.806521,0.0,0.591206
-0.00716019,-0.0171661,-0.380371,0.9137254901960784,0.4823529411764706,0.2039215686274509,-0.795581,0.0,0.605848
-0.0053215,-0.0170746,-0.378418,0.8784313725490196,0.4509803921568627,0.2,-0.813353,0.0,0.58177
-0.00349426,-0.0169373,-0.375244,0.8627450980392157,0.4313725490196078,0.192156862745098,-0.816713,0.0,0.577044
-0.00169849,-0.0168457,-0.373291,0.8509803921568627,0.4235294117647059,0.1647058823529411,-0.634133,0.0,0.773224
7.7188e-05,-0.0167999,-0.372314,0.8117647058823529,0.3764705882352941,0.1254901960784313,-0.637782,0.0,0.770217
0.00183868,-0.0167236,-0.370361,0.788235294117647,0.3607843137254902,0.1098039215686274,-0.640412,0.0,0.768032
0.00359154,-0.0166779,-0.369385,0.7843137254901961,0.3725490196078431,0.1411764705882353,-0.487904,0.0,0.872897
0.00533295,-0.0166321,-0.368408,0.7411764705882353,0.3254901960784314,0.1137254901960784,-0.490145,0.0,0.871641
0.00706482,-0.0165863,-0.367432,0.7372549019607844,0.3215686274509804,0.1098039215686274,-0.536451,0.0,0.843932
0.00878906,-0.0165405,-0.366211,0.7411764705882353,0.3294117647058823,0.0980392156862745,-0.332602,0.0,0.943067
0.0105286,-0.0165405,-0.366211,0.7450980392156863,0.3411764705882353,0.1176470588235294,-0.272286,0.0,0.962216
0.0122375,-0.0164948,-0.365234,0.7176470588235294,0.3176470588235294,0.1098039215686274,-0.272657,0.0,0.962111
0.0139771,-0.0164948,-0.365234,0.6784313725490196,0.2862745098039215,0.0862745098039215,0.0,0.0,1.0
0.0157166,-0.0164948,-0.365234,0.6705882352941176,0.2705882352941176,0.0627450980392156,0.0,0.0,1.0
0.0174561,-0.0164948,-0.365234,0.6509803921568628,0.2509803921568627,0.0431372549019607,0.266998,0.0,0.963697
0.0192413,-0.0165405,-0.366211,0.6431372549019608,0.2431372549019607,0.0352941176470588,0.177987,-0.177987,0.967802
-0.391113,-0.0297546,-0.596191,0.6078431372549019,0.5882352941176471,0.5803921568627451,0.563222,0.0667074,0.823608
-0.0205078,-0.0196381,-0.393311,0.7333333333333333,0.6,0.5607843137254902,-0.568312,-0.168611,0.805352
-0.0185852,-0.019577,-0.392334,0.7294117647058823,0.5019607843137255,0.4549019607843137,-0.501376,-0.143334,0.853275
-0.0166779,-0.0195312,-0.391357,0.7058823529411765,0.3686274509803922,0.3333333333333333,-0.534969,-0.267485,0.801411
-0.01474,-0.0194244,-0.389404,0.6862745098039216,0.3176470588235294,0.2666666666666666,-0.655615,-0.238361,0.716487
-0.0128174,-0.0193329,-0.387451,0.6666666666666666,0.2392156862745098,0.1568627450980392,-0.73329,-0.1124,0.670561
-0.00904083,-0.0191345,-0.383301,0.8627450980392157,0.4352941176470588,0.1764705882352941,-0.806521,0.0,0.591206
-0.00716019,-0.0189819,-0.380371,0.8745098039215686,0.4509803921568627,0.1647058823529411,-0.795657,0.0,0.605747
-0.0053215,-0.0188751,-0.378418,0.8117647058823529,0.388235294117647,0.1529411764705882,-0.813353,0.0,0.58177
-0.00349426,-0.0187225,-0.375244,0.8784313725490196,0.4627450980392157,0.2431372549019607,-0.816846,0.0,0.576856
