X,Y,Z,R,G,B,nX,nY,nZ
-4.653929999999999872e-02,-7.641599999999999782e-02,-3.061519999999999797e-01,4.862745098039215064e-01,1.686274509803921129e-01,1.176470588235289938e-02,2.967679999999999763e-01,-2.947069999999999967e-01,9.083369999999999500e-01
-4.507450000000000345e-02,-7.641599999999999782e-02,-3.061519999999999797e-01,4.784313725490195734e-01,1.843137254901960898e-01,3.921568627450980338e-02,3.653150000000000008e-01,-3.653150000000000008e-01,8.562070000000000514e-01
-4.245000000000000162e-02,-7.690429999999999489e-02,-3.081050000000000177e-01,3.921568627450979783e-01,1.490196078431371973e-01,3.137254901960780107e-02,5.925669999999999549e-01,0.000000000000000000e+00,8.055210000000000425e-01
-7.275389999999999635e-02,-7.788090000000000290e-02,-3.061519999999999797e-01,5.882352941176470784e-01,2.745098039215685959e-01,9.019607843137250613e-02,-4.961389999999999967e-01,0.000000000000000000e+00,8.682429999999999870e-01
-7.104489999999999417e-02,-7.763670000000000293e-02,-3.051760000000000028e-01,6.235294117647058876e-01,2.745098039215685959e-01,9.411764705882350035e-02,-5.404600000000000515e-01,0.000000000000000000e+00,8.413699999999999513e-01
-6.933590000000000586e-02,-7.739260000000000583e-02,-3.039549999999999752e-01,5.882352941176470784e-01,2.313725490196077983e-01,3.529411764705880222e-02,-5.476590000000000069e-01,0.000000000000000000e+00,8.367019999999999458e-01
-6.768799999999999817e-02,-7.708740000000000037e-02,-3.029789999999999983e-01,6.196078431372549211e-01,2.666666666666666075e-01,5.098039215686270276e-02,-2.993399999999999950e-01,0.000000000000000000e+00,9.541469999999999674e-01
-6.622309999999999308e-02,-7.708740000000000037e-02,-3.029789999999999983e-01,6.117647058823529882e-01,2.392156862745097867e-01,3.137254901960780107e-02,-2.685130000000000017e-01,-2.723490000000000077e-01,9.239730000000000443e-01
-6.457519999999999927e-02,-7.684330000000000327e-02,-3.020019999999999927e-01,6.235294117647058876e-01,2.509803921568626861e-01,5.098039215686270276e-02,-2.738039999999999918e-01,-2.699480000000000213e-01,9.231249999999999734e-01
-6.317140000000000255e-02,-7.684330000000000327e-02,-3.020019999999999927e-01,6.666666666666666297e-01,3.137254901960784270e-01,1.058823529411763997e-01,0.000000000000000000e+00,0.000000000000000000e+00,1.000000000000000000e+00
-6.173710000000000309e-02,-7.684330000000000327e-02,-3.020019999999999927e-01,6.901960784313725394e-01,3.098039215686274050e-01,8.627450980392149804e-02,-1.000400000000000039e-01,-2.044289999999999996e-01,9.737559999999999549e-01
-6.030270000000000075e-02,-7.684330000000000327e-02,-3.020019999999999927e-01,6.588235294117646967e-01,2.392156862745097867e-01,3.921568627450980338e-02,0.000000000000000000e+00,-2.993399999999999950e-01,9.541469999999999674e-01
-5.886840000000000128e-02,-7.684330000000000327e-02,-3.020019999999999927e-01,6.431372549019608309e-01,2.235294117647058931e-01,3.137254901960780107e-02,0.000000000000000000e+00,-2.993399999999999950e-01,9.541469999999999674e-01
-5.743410000000000182e-02,-7.684330000000000327e-02,-3.020019999999999927e-01,6.745098039215686736e-01,2.588235294117646745e-01,4.705882352941170160e-02,0.000000000000000000e+00,-2.993399999999999950e-01,9.541469999999999674e-01
-5.599980000000000235e-02,-7.684330000000000327e-02,-3.020019999999999927e-01,6.470588235294117974e-01,2.431372549019606977e-01,2.745098039215679991e-02,2.117549999999999988e-01,-2.140080000000000038e-01,9.536040000000000072e-01
-5.453489999999999727e-02,-7.684330000000000327e-02,-3.020019999999999927e-01,6.313725490196078205e-01,2.352941176470587925e-01,1.568627450980390053e-02,2.111319999999999864e-01,-2.133780000000000121e-01,9.538830000000000364e-01
-5.328370000000000328e-02,-7.708740000000000037e-02,-3.029789999999999983e-01,6.235294117647058876e-01,2.392156862745097867e-01,3.529411764705880222e-02,3.026860000000000106e-01,-3.005539999999999878e-01,9.044600000000000417e-01
-5.184939999999999688e-02,-7.708740000000000037e-02,-3.029789999999999983e-01,6.039215686274509443e-01,2.431372549019606977e-01,6.666666666666659635e-02,2.953760000000000274e-01,-3.017969999999999819e-01,9.064609999999999612e-01
-5.056759999999999727e-02,-7.739260000000000583e-02,-3.039549999999999752e-01,5.921568627450980449e-01,2.313725490196077983e-01,5.490196078431369697e-02,3.125729999999999897e-01,-3.193679999999999852e-01,8.945959999999999468e-01
-4.913329999999999781e-02,-7.739260000000000583e-02,-3.039549999999999752e-01,5.490196078431373028e-01,2.000000000000000111e-01,1.960784313725490169e-02,4.017689999999999872e-01,-3.975839999999999930e-01,8.249290000000000234e-01
-4.782100000000000239e-02,-7.763670000000000293e-02,-3.051760000000000028e-01,4.980392156862745168e-01,1.725490196078431071e-01,1.176470588235289938e-02,5.909250000000000336e-01,-2.655540000000000123e-01,7.617669999999999719e-01
-4.522709999999999925e-02,-7.812500000000000000e-02,-3.071289999999999853e-01,4.235294117647058765e-01,1.411764705882352922e-01,2.745098039215679991e-02,4.879109999999999836e-01,-1.951650000000000051e-01,8.507959999999999967e-01
-4.391479999999999689e-02,-7.836909999999999710e-02,-3.081050000000000177e-01,3.882352941176470118e-01,1.450980392156862864e-01,2.745098039215679991e-02,3.626530000000000031e-01,-3.626530000000000031e-01,8.584669999999999801e-01
-4.245000000000000162e-02,-7.836909999999999710e-02,-3.081050000000000177e-01,3.411764705882353033e-01,1.294117647058823095e-01,2.745098039215679991e-02,2.891340000000000021e-01,-2.891340000000000021e-01,9.125799999999999468e-01
-7.275389999999999635e-02,-7.934570000000000511e-02,-3.061519999999999797e-01,5.529411764705882693e-01,2.039215686274508943e-01,2.352941176470579876e-02,-4.961389999999999967e-01,0.000000000000000000e+00,8.682429999999999870e-01
-7.104489999999999417e-02,-7.910159999999999414e-02,-3.051760000000000028e-01,5.843137254901961120e-01,2.352941176470587925e-01,6.274509803921560214e-02,-5.407579999999999609e-01,0.000000000000000000e+00,8.411779999999999813e-01
-6.933590000000000586e-02,-7.879640000000000255e-02,-3.039549999999999752e-01,5.803921568627451455e-01,2.313725490196077983e-01,5.882352941176469813e-02,-4.848169999999999980e-01,-8.214200000000000668e-02,8.707500000000000240e-01
-6.768799999999999817e-02,-7.855220000000000258e-02,-3.029789999999999983e-01,5.764705882352940680e-01,2.313725490196077983e-01,5.882352941176469813e-02,-3.551929999999999810e-01,-1.757269999999999943e-01,9.181270000000000264e-01
-6.622309999999999308e-02,-7.855220000000000258e-02,-3.029789999999999983e-01,5.764705882352940680e-01,2.313725490196077983e-01,5.098039215686270276e-02,0.000000000000000000e+00,0.000000000000000000e+00,1.000000000000000000e+00
-6.481929999999999636e-02,-7.855220000000000258e-02,-3.029789999999999983e-01,6.117647058823529882e-01,2.627450980392156965e-01,8.235294117647050383e-02,-2.728760000000000074e-01,-2.652959999999999763e-01,9.247469999999999857e-01
-6.317140000000000255e-02,-7.830810000000000548e-02,-3.020019999999999927e-01,6.980392156862744724e-01,4.000000000000000222e-01,2.196078431372548989e-01,-2.713979999999999726e-01,-2.694860000000000033e-01,9.239699999999999580e-01
-6.173710000000000309e-02,-7.830810000000000548e-02,-3.020019999999999927e-01,6.431372549019608309e-01,2.941176470588234837e-01,1.294117647058823095e-01,0.000000000000000000e+00,0.000000000000000000e+00,1.000000000000000000e+00
-6.030270000000000075e-02,-7.830810000000000548e-02,-3.020019999999999927e-01,6.823529411764706065e-01,2.901960784313725727e-01,9.803921568627449457e-02,0.000000000000000000e+00,0.000000000000000000e+00,1.000000000000000000e+00
-5.886840000000000128e-02,-7.830810000000000548e-02,-3.020019999999999927e-01,6.980392156862744724e-01,2.980392156862745057e-01,9.019607843137250613e-02,1.081430000000000030e-01,-1.104929999999999940e-01,9.879759999999999653e-01
-5.743410000000000182e-02,-7.830810000000000548e-02,-3.020019999999999927e-01,6.862745098039215730e-01,2.666666666666666075e-01,6.666666666666659635e-02,0.000000000000000000e+00,-2.940860000000000141e-01,9.557790000000000452e-01
-5.599980000000000235e-02,-7.830810000000000548e-02,-3.020019999999999927e-01,6.392156862745097534e-01,2.470588235294116919e-01,3.921568627450980338e-02,2.115410000000000068e-01,-2.093369999999999953e-01,9.546879999999999811e-01
-5.471800000000000275e-02,-7.855220000000000258e-02,-3.029789999999999983e-01,6.078431372549019107e-01,2.156862745098039047e-01,7.843137254901899960e-03,2.996130000000000182e-01,-2.954510000000000192e-01,9.071609999999999951e-01
-5.328370000000000328e-02,-7.855220000000000258e-02,-3.029789999999999983e-01,5.921568627450980449e-01,2.078431372549018885e-01,1.176470588235289938e-02,2.996130000000000182e-01,-2.954510000000000192e-01,9.071609999999999951e-01
-5.200199999999999961e-02,-7.879640000000000255e-02,-3.039549999999999752e-01,5.411764705882352589e-01,1.843137254901960898e-01,0.000000000000000000e+00,3.209569999999999923e-01,-3.142699999999999938e-01,8.934320000000000039e-01
-5.056759999999999727e-02,-7.879640000000000255e-02,-3.039549999999999752e-01,4.980392156862745168e-01,1.529411764705881915e-01,0.000000000000000000e+00,3.912700000000000067e-01,-4.040290000000000270e-01,8.268419999999999659e-01
-4.928590000000000054e-02,-7.910159999999999414e-02,-3.051760000000000028e-01,4.823529411764705954e-01,1.607843137254902077e-01,1.568627450980390053e-02,4.520939999999999959e-01,-4.503519999999999746e-01,7.699319999999999498e-01
-4.800419999999999687e-02,-7.934570000000000511e-02,-3.061519999999999797e-01,4.509803921568626972e-01,1.686274509803921129e-01,2.745098039215679991e-02,4.381050000000000222e-01,-4.381050000000000222e-01,7.849380000000000246e-01
-4.669190000000000146e-02,-7.958980000000000221e-02,-3.071289999999999853e-01,4.078431372549018996e-01,1.411764705882352922e-01,1.176470588235289938e-02,3.662090000000000067e-01,-3.662090000000000067e-01,8.554420000000000357e-01
-4.522709999999999925e-02,-7.958980000000000221e-02,-3.071289999999999853e-01,4.117647058823529216e-01,1.450980392156862864e-01,4.313725490196070045e-02,3.626530000000000031e-01,-3.626530000000000031e-01,8.584669999999999801e-01
-7.104489999999999417e-02,-8.050540000000000473e-02,-3.051760000000000028e-01,5.529411764705882693e-01,2.196078431372548989e-01,5.098039215686270276e-02,-5.407579999999999609e-01,0.000000000000000000e+00,8.411779999999999813e-01
-6.933590000000000586e-02,-8.026120000000000476e-02,-3.039549999999999752e-01,5.372549019607842924e-01,1.960784313725489891e-01,5.882352941176469813e-02,-3.630880000000000218e-01,0.000000000000000000e+00,9.317549999999999999e-01
-6.793209999999999527e-02,-8.026120000000000476e-02,-3.039549999999999752e-01,5.568627450980392357e-01,2.274509803921568041e-01,9.411764705882350035e-02,-2.695330000000000226e-01,-2.657900000000000262e-01,9.255849999999999911e-01
-6.622309999999999308e-02,-8.001709999999999379e-02,-3.029789999999999983e-01,5.411764705882352589e-01,2.196078431372548989e-01,7.450980392156859866e-02,-2.676239999999999730e-01,-2.676239999999999730e-01,9.256109999999999616e-01
-6.481929999999999636e-02,-8.001709999999999379e-02,-3.029789999999999983e-01,5.921568627450980449e-01,2.705882352941175739e-01,9.803921568627449457e-02,0.000000000000000000e+00,0.000000000000000000e+00,1.000000000000000000e+00
-6.335449999999999415e-02,-8.001709999999999379e-02,-3.029789999999999983e-01,6.549019607843137303e-01,3.607843137254901911e-01,1.529411764705881915e-01,-2.687430000000000097e-01,-2.706620000000000137e-01,9.244019999999999460e-01
-6.173710000000000309e-02,-7.971190000000000220e-02,-3.020019999999999927e-01,7.019607843137254388e-01,3.803921568627450789e-01,1.921568627450979949e-01,-1.748290000000000122e-01,-3.572600000000000220e-01,9.174970000000000070e-01
-6.030270000000000075e-02,-7.971190000000000220e-02,-3.020019999999999927e-01,7.568627450980391913e-01,4.196078431372549100e-01,1.921568627450979949e-01,0.000000000000000000e+00,-2.993399999999999950e-01,9.541469999999999674e-01
-5.886840000000000128e-02,-7.971190000000000220e-02,-3.020019999999999927e-01,7.215686274509803821e-01,3.843137254901961009e-01,1.450980392156862864e-01,2.101760000000000017e-01,-2.147449999999999914e-01,9.537879999999999692e-01
-5.761720000000000036e-02,-8.001709999999999379e-02,-3.029789999999999983e-01,6.705882352941175961e-01,2.784313725490196179e-01,7.058823529411760445e-02,2.101760000000000017e-01,-2.147449999999999914e-01,9.537879999999999692e-01
-5.618290000000000090e-02,-8.001709999999999379e-02,-3.029789999999999983e-01,5.607843137254902022e-01,1.960784313725489891e-01,3.921568627450899673e-03,9.195979999999999432e-02,-3.798340000000000050e-01,9.204729999999999857e-01
-5.346680000000000182e-02,-8.026120000000000476e-02,-3.039549999999999752e-01,5.058823529411764497e-01,1.529411764705881915e-01,7.843137254901899960e-03,3.193159999999999887e-01,-3.172690000000000232e-01,8.929599999999999760e-01
-5.200199999999999961e-02,-8.026120000000000476e-02,-3.039549999999999752e-01,4.862745098039215064e-01,1.607843137254902077e-01,7.843137254901899960e-03,4.018079999999999985e-01,-3.976219999999999755e-01,8.248919999999999586e-01
-5.075070000000000275e-02,-8.050540000000000473e-02,-3.051760000000000028e-01,4.941176470588234948e-01,1.882352941176470007e-01,5.490196078431369697e-02,4.517249999999999877e-01,-4.478750000000000231e-01,7.715899999999999981e-01
-4.815669999999999673e-02,-8.105469999999999342e-02,-3.071289999999999853e-01,3.372549019607842813e-01,1.176470588235293963e-01,2.352941176470579876e-02,2.511379999999999724e-01,-4.970450000000000146e-01,8.305879999999999930e-01
-4.669190000000000146e-02,-8.105469999999999342e-02,-3.071289999999999853e-01,3.176470588235293935e-01,1.215686274509802933e-01,3.137254901960780107e-02,3.635369999999999990e-01,-3.635369999999999990e-01,8.577190000000000092e-01
-4.537959999999999910e-02,-8.129880000000000440e-02,-3.081050000000000177e-01,3.058823529411764941e-01,1.098039215686273939e-01,2.745098039215679991e-02,4.155070000000000152e-01,-4.207009999999999916e-01,8.064519999999999467e-01
-7.104489999999999417e-02,-8.197019999999999307e-02,-3.051760000000000028e-01,5.294117647058823595e-01,2.039215686274508943e-01,5.098039215686270276e-02,-4.614480000000000248e-01,-1.048749999999999960e-01,8.809470000000000356e-01
-6.481929999999999636e-02,-8.142090000000000438e-02,-3.029789999999999983e-01,4.745098039215686070e-01,1.764705882352941013e-01,5.098039215686270276e-02,-1.752430000000000099e-01,-3.504860000000000197e-01,9.200270000000000392e-01
-6.335449999999999415e-02,-8.142090000000000438e-02,-3.029789999999999983e-01,7.529411764705882248e-01,4.705882352941175850e-01,3.215686274509804154e-01,0.000000000000000000e+00,-2.940860000000000141e-01,9.557790000000000452e-01
-6.195069999999999744e-02,-8.142090000000000438e-02,-3.029789999999999983e-01,6.666666666666666297e-01,3.490196078431371807e-01,1.843137254901960898e-01,-8.348400000000000265e-02,-4.264939999999999842e-01,9.006290000000000129e-01
-6.048579999999999929e-02,-8.142090000000000438e-02,-3.029789999999999983e-01,5.843137254901961120e-01,2.509803921568626861e-01,6.666666666666659635e-02,0.000000000000000000e+00,-4.895349999999999979e-01,8.719839999999999813e-01
-5.905149999999999982e-02,-8.142090000000000438e-02,-3.029789999999999983e-01,6.352941176470587870e-01,2.862745098039214953e-01,1.058823529411763997e-01,0.000000000000000000e+00,-4.895120000000000027e-01,8.719970000000000221e-01
-5.761720000000000036e-02,-8.142090000000000438e-02,-3.029789999999999983e-01,5.725490196078431016e-01,2.039215686274508943e-01,3.137254901960780107e-02,9.144460000000000088e-02,-3.737300000000000066e-01,9.230190000000000339e-01
-5.618290000000000090e-02,-8.142090000000000438e-02,-3.029789999999999983e-01,5.764705882352940680e-01,2.431372549019606977e-01,5.882352941176469813e-02,3.171209999999999862e-01,-3.191800000000000193e-01,8.930609999999999937e-01
-5.346680000000000182e-02,-8.172609999999999597e-02,-3.039549999999999752e-01,4.745098039215686070e-01,1.960784313725489891e-01,6.274509803921560214e-02,4.026959999999999984e-01,-3.985009999999999941e-01,8.240349999999999620e-01
-5.090329999999999855e-02,-8.227539999999999853e-02,-3.061519999999999797e-01,3.803921568627450789e-01,1.411764705882352922e-01,3.921568627450980338e-02,4.840889999999999915e-01,-4.740039999999999809e-01,7.355120000000000546e-01
-4.962160000000000182e-02,-8.251949999999999563e-02,-3.071289999999999853e-01,3.215686274509804154e-01,1.254901960784312875e-01,3.529411764705880222e-02,4.723120000000000096e-01,-4.626730000000000009e-01,7.502370000000000427e-01
-4.684449999999999725e-02,-8.276369999999999560e-02,-3.081050000000000177e-01,2.156862745098039047e-01,9.803921568627449457e-02,3.529411764705880222e-02,1.420180000000000053e-01,-5.816710000000000491e-01,8.009309999999999485e-01
-7.104489999999999417e-02,-8.343509999999999815e-02,-3.051760000000000028e-01,5.176470588235294601e-01,2.117647058823529105e-01,7.058823529411760445e-02,-2.940860000000000141e-01,0.000000000000000000e+00,9.557790000000000452e-01
-6.958010000000000583e-02,-8.343509999999999815e-02,-3.051760000000000028e-01,4.705882352941175850e-01,1.882352941176470007e-01,7.450980392156859866e-02,-3.225560000000000094e-01,-3.180760000000000254e-01,8.915079999999999671e-01
-6.793209999999999527e-02,-8.319089999999999818e-02,-3.039549999999999752e-01,4.274509803921567874e-01,1.607843137254902077e-01,5.098039215686270276e-02,-2.152810000000000001e-01,-4.215929999999999955e-01,8.808599999999999763e-01
-6.646730000000000693e-02,-8.319089999999999818e-02,-3.039549999999999752e-01,4.156862745098038880e-01,1.686274509803921129e-01,7.058823529411760445e-02,0.000000000000000000e+00,-3.589789999999999925e-01,9.333460000000000090e-01
-6.500240000000000185e-02,-8.319089999999999818e-02,-3.039549999999999752e-01,4.549019607843137192e-01,2.000000000000000111e-01,7.843137254901960675e-02,-8.408240000000000158e-02,-4.755909999999999860e-01,8.756389999999999452e-01
-6.359860000000000513e-02,-8.319089999999999818e-02,-3.039549999999999752e-01,5.176470588235294601e-01,2.117647058823529105e-01,7.058823529411760445e-02,0.000000000000000000e+00,-5.338190000000000435e-01,8.455989999999999895e-01
-6.213380000000000292e-02,-8.319089999999999818e-02,-3.039549999999999752e-01,6.627450980392156632e-01,3.176470588235293935e-01,1.529411764705881915e-01,0.000000000000000000e+00,-5.341669999999999474e-01,8.453789999999999916e-01
-6.069950000000000345e-02,-8.319089999999999818e-02,-3.039549999999999752e-01,6.627450980392156632e-01,3.176470588235293935e-01,1.450980392156862864e-01,0.000000000000000000e+00,-5.339930000000000510e-01,8.454890000000000461e-01
-5.926510000000000111e-02,-8.319089999999999818e-02,-3.039549999999999752e-01,6.549019607843137303e-01,3.372549019607842813e-01,1.294117647058823095e-01,0.000000000000000000e+00,-5.341650000000000009e-01,8.453800000000000203e-01
-5.780029999999999890e-02,-8.319089999999999818e-02,-3.039549999999999752e-01,5.921568627450980449e-01,2.470588235294116919e-01,6.666666666666659635e-02,0.000000000000000000e+00,-5.339930000000000510e-01,8.454890000000000461e-01
-5.636599999999999944e-02,-8.319089999999999818e-02,-3.039549999999999752e-01,4.666666666666666741e-01,1.568627450980392135e-01,1.568627450980390053e-02,2.888470000000000204e-01,-5.195049999999999946e-01,8.041650000000000187e-01
-5.364990000000000037e-02,-8.343509999999999815e-02,-3.051760000000000028e-01,3.490196078431371807e-01,1.215686274509802933e-01,2.352941176470579876e-02,2.317440000000000055e-01,-5.421620000000000328e-01,8.076849999999999863e-01
-5.105590000000000128e-02,-8.398440000000000072e-02,-3.071289999999999853e-01,3.254901960784313819e-01,1.294117647058823095e-01,4.705882352941170160e-02,4.667560000000000042e-01,-4.667560000000000042e-01,7.511849999999999916e-01
-6.958010000000000583e-02,-8.489990000000000037e-02,-3.051760000000000028e-01,4.549019607843137192e-01,1.921568627450979949e-01,6.274509803921560214e-02,-9.996879999999999655e-02,-1.999380000000000046e-01,9.746960000000000068e-01
-6.524660000000000182e-02,-8.489990000000000037e-02,-3.051760000000000028e-01,4.509803921568626972e-01,1.843137254901960898e-01,8.235294117647050383e-02,0.000000000000000000e+00,-5.410549999999999526e-01,8.409870000000000401e-01
-6.378169999999999673e-02,-8.489990000000000037e-02,-3.051760000000000028e-01,4.745098039215686070e-01,1.764705882352941013e-01,5.098039215686270276e-02,0.000000000000000000e+00,-5.404579999999999940e-01,8.413709999999999800e-01
-6.234739999999999727e-02,-8.489990000000000037e-02,-3.051760000000000028e-01,4.980392156862745168e-01,1.921568627450979949e-01,2.352941176470579876e-02,0.000000000000000000e+00,-5.407579999999999609e-01,8.411779999999999813e-01
-6.091309999999999780e-02,-8.489990000000000037e-02,-3.051760000000000028e-01,4.862745098039215064e-01,1.607843137254902077e-01,7.843137254901899960e-03,0.000000000000000000e+00,-5.406079999999999774e-01,8.412739999999999663e-01
-5.944819999999999965e-02,-8.489990000000000037e-02,-3.051760000000000028e-01,5.607843137254902022e-01,2.392156862745097867e-01,5.882352941176469813e-02,0.000000000000000000e+00,-5.407579999999999609e-01,8.411779999999999813e-01
-5.798339999999999744e-02,-8.489990000000000037e-02,-3.051760000000000028e-01,5.803921568627451455e-01,2.784313725490196179e-01,1.098039215686273939e-01,0.000000000000000000e+00,-5.407579999999999609e-01,8.411779999999999813e-01
-5.654909999999999798e-02,-8.489990000000000037e-02,-3.051760000000000028e-01,4.549019607843137192e-01,1.686274509803921129e-01,3.921568627450980338e-02,2.409509999999999985e-01,-5.412909999999999666e-01,8.055729999999999835e-01
-5.526729999999999837e-02,-8.514399999999999746e-02,-3.061519999999999797e-01,3.647058823529411020e-01,1.215686274509802933e-01,1.176470588235289938e-02,3.236040000000000028e-01,-5.466710000000000180e-01,7.722900000000000320e-01
-5.380250000000000310e-02,-8.514399999999999746e-02,-3.061519999999999797e-01,3.686274509803921795e-01,1.411764705882352922e-01,5.098039215686270276e-02,1.435800000000000132e-01,-5.834840000000000027e-01,7.993320000000000425e-01
-5.123899999999999982e-02,-8.575439999999999452e-02,-3.081050000000000177e-01,2.627450980392156965e-01,1.019607843137254055e-01,3.529411764705880222e-02,4.667560000000000042e-01,-4.667560000000000042e-01,7.511849999999999916e-01
-6.689449999999999563e-02,-8.660890000000000255e-02,-3.061519999999999797e-01,4.392156862745097978e-01,1.725490196078431071e-01,5.490196078431369697e-02,1.819890000000000119e-01,-4.419719999999999760e-01,8.783739999999999881e-01
-6.542969999999999342e-02,-8.660890000000000255e-02,-3.061519999999999797e-01,4.431372549019607088e-01,1.725490196078431071e-01,6.274509803921560214e-02,0.000000000000000000e+00,-4.895349999999999979e-01,8.719839999999999813e-01
-6.402589999999999670e-02,-8.660890000000000255e-02,-3.061519999999999797e-01,4.627450980392157076e-01,1.803921568627450955e-01,6.666666666666659635e-02,0.000000000000000000e+00,-4.895349999999999979e-01,8.719839999999999813e-01
-6.109620000000000328e-02,-8.660890000000000255e-02,-3.061519999999999797e-01,4.627450980392157076e-01,1.803921568627450955e-01,6.666666666666659635e-02,0.000000000000000000e+00,-4.895120000000000027e-01,8.719970000000000221e-01
-5.963129999999999820e-02,-8.660890000000000255e-02,-3.061519999999999797e-01,4.588235294117646856e-01,1.725490196078431071e-01,4.313725490196070045e-02,0.000000000000000000e+00,-4.895349999999999979e-01,8.719839999999999813e-01
-5.819699999999999873e-02,-8.660890000000000255e-02,-3.061519999999999797e-01,4.431372549019607088e-01,1.647058823529410909e-01,3.137254901960780107e-02,7.791389999999999427e-02,-5.421510000000000495e-01,8.366609999999999880e-01
-5.673220000000000346e-02,-8.660890000000000255e-02,-3.061519999999999797e-01,4.313725490196078094e-01,1.607843137254902077e-01,5.098039215686270276e-02,1.433969999999999967e-01,-5.842680000000000096e-01,7.987919999999999465e-01
-5.545039999999999691e-02,-8.691409999999999414e-02,-3.071289999999999853e-01,3.960784313725490002e-01,1.529411764705881915e-01,4.313725490196070045e-02,4.676089999999999969e-01,-4.676089999999999969e-01,7.501229999999999842e-01
-5.416870000000000018e-02,-8.721919999999999673e-02,-3.081050000000000177e-01,3.725490196078430905e-01,1.490196078431371973e-01,3.137254901960780107e-02,1.996519999999999961e-01,-6.174939999999999873e-01,7.608160000000000478e-01
-5.270389999999999797e-02,-8.721919999999999673e-02,-3.081050000000000177e-01,2.980392156862745057e-01,1.176470588235293963e-01,3.921568627450980338e-02,2.599759999999999849e-01,-6.406549999999999745e-01,7.224779999999999536e-01
-5.139160000000000256e-02,-8.746339999999999670e-02,-3.090820000000000234e-01,2.549019607843137081e-01,1.098039215686273939e-01,4.705882352941170160e-02,3.980250000000000177e-01,-5.915470000000000450e-01,7.011760000000000215e-01
-5.010989999999999889e-02,-8.776860000000000217e-02,-3.100589999999999735e-01,2.313725490196077983e-01,1.176470588235293963e-01,6.274509803921560214e-02,3.945810000000000151e-01,-5.918710000000000360e-01,7.028469999999999995e-01
-6.420900000000000218e-02,-8.837889999999999635e-02,-3.071289999999999853e-01,4.392156862745097978e-01,1.725490196078431071e-01,6.274509803921560214e-02,0.000000000000000000e+00,-4.830769999999999786e-01,8.755779999999999674e-01
-6.274409999999999710e-02,-8.837889999999999635e-02,-3.071289999999999853e-01,4.313725490196078094e-01,1.647058823529410909e-01,5.490196078431369697e-02,0.000000000000000000e+00,-4.830769999999999786e-01,8.755779999999999674e-01
-6.130979999999999763e-02,-8.837889999999999635e-02,-3.071289999999999853e-01,4.235294117647058765e-01,1.568627450980392135e-01,4.705882352941170160e-02,0.000000000000000000e+00,-4.830769999999999786e-01,8.755779999999999674e-01
-5.984500000000000236e-02,-8.837889999999999635e-02,-3.071289999999999853e-01,4.156862745098038880e-01,1.725490196078431071e-01,5.490196078431369697e-02,7.999979999999999591e-02,-5.375980000000000203e-01,8.393969999999999487e-01
-5.838009999999999727e-02,-8.837889999999999635e-02,-3.071289999999999853e-01,3.960784313725490002e-01,1.607843137254902077e-01,4.705882352941170160e-02,1.434080000000000077e-01,-5.843120000000000536e-01,7.987570000000000503e-01
-5.709840000000000054e-02,-8.868410000000000182e-02,-3.081050000000000177e-01,3.843137254901961009e-01,1.647058823529410909e-01,6.274509803921560214e-02,1.429650000000000087e-01,-5.840269999999999628e-01,7.990450000000000053e-01
-5.563350000000000239e-02,-8.868410000000000182e-02,-3.081050000000000177e-01,3.843137254901961009e-01,1.803921568627450955e-01,9.411764705882350035e-02,3.086039999999999894e-01,-5.344889999999999919e-01,7.868199999999999639e-01
-5.435179999999999872e-02,-8.892819999999999891e-02,-3.090820000000000234e-01,3.725490196078430905e-01,2.156862745098039047e-01,1.137254901960784020e-01,4.635139999999999816e-01,-4.683419999999999805e-01,7.522039999999999837e-01
-5.303959999999999925e-02,-8.923340000000000438e-02,-3.100589999999999735e-01,2.784313725490196179e-01,1.372549019607842979e-01,5.490196078431369697e-02,3.461750000000000105e-01,-5.706020000000000536e-01,7.446979999999999711e-01
-5.172729999999999689e-02,-8.953859999999999597e-02,-3.110350000000000059e-01,2.549019607843137081e-01,1.294117647058823095e-01,5.098039215686270276e-02,3.915959999999999996e-01,-5.914449999999999985e-01,7.048729999999999718e-01
-5.041500000000000148e-02,-8.984380000000000144e-02,-3.120120000000000116e-01,2.274509803921568041e-01,1.333333333333333037e-01,7.058823529411760445e-02,4.119869999999999921e-01,-5.916050000000000475e-01,6.930159999999999654e-01
-9.948730000000000073e-02,-9.716800000000000437e-02,-3.322749999999999870e-01,5.019607843137254832e-01,4.862745098039215064e-01,4.588235294117646856e-01,2.407720000000000138e-01,4.815429999999999988e-01,8.427010000000000334e-01
-6.439209999999999379e-02,-9.014890000000000403e-02,-3.081050000000000177e-01,3.137254901960784270e-01,1.764705882352941013e-01,1.176470588235293963e-01,0.000000000000000000e+00,-4.830769999999999786e-01,8.755779999999999674e-01
-6.292720000000000258e-02,-9.014890000000000403e-02,-3.081050000000000177e-01,3.882352941176470118e-01,2.392156862745097867e-01,1.333333333333333037e-01,8.043340000000000212e-02,-5.389040000000000497e-01,8.385179999999999856e-01
-6.149290000000000311e-02,-9.014890000000000403e-02,-3.081050000000000177e-01,4.039215686274509887e-01,2.588235294117646745e-01,1.411764705882352922e-01,0.000000000000000000e+00,-6.125340000000000229e-01,7.904440000000000355e-01
-6.002810000000000090e-02,-9.014890000000000403e-02,-3.081050000000000177e-01,3.882352941176470118e-01,2.627450980392156965e-01,1.764705882352941013e-01,1.513619999999999965e-01,-5.827440000000000397e-01,7.984350000000000058e-01
-5.874630000000000130e-02,-9.039310000000000400e-02,-3.090820000000000234e-01,3.960784313725490002e-01,2.901960784313725727e-01,1.882352941176470007e-01,1.508980000000000044e-01,-5.824679999999999858e-01,7.987239999999999895e-01
-5.728149999999999908e-02,-9.039310000000000400e-02,-3.090820000000000234e-01,3.725490196078430905e-01,2.666666666666666075e-01,1.647058823529410909e-01,7.415860000000000507e-02,-5.416800000000000503e-01,8.373070000000000235e-01
-5.581669999999999687e-02,-9.039310000000000400e-02,-3.090820000000000234e-01,3.568627450980392246e-01,2.549019607843137081e-01,1.333333333333333037e-01,2.431240000000000068e-01,-4.930970000000000075e-01,8.353120000000000545e-01
-5.453489999999999727e-02,-9.069820000000000659e-02,-3.100589999999999735e-01,2.745098039215685959e-01,1.686274509803921129e-01,6.666666666666659635e-02,4.633610000000000229e-01,-4.633610000000000229e-01,7.553760000000000474e-01
-5.322269999999999779e-02,-9.100339999999999818e-02,-3.110350000000000059e-01,2.549019607843137081e-01,1.764705882352941013e-01,9.803921568627449457e-02,4.576339999999999852e-01,-4.624010000000000065e-01,7.594450000000000367e-01
-5.191040000000000237e-02,-9.130860000000000365e-02,-3.120120000000000116e-01,2.078431372549018885e-01,1.254901960784312875e-01,5.882352941176469813e-02,4.651339999999999919e-01,-4.748249999999999971e-01,7.471219999999999528e-01
-1.023560000000000025e-01,-9.844970000000000110e-02,-3.310549999999999882e-01,5.607843137254902022e-01,5.411764705882352589e-01,5.254901960784313930e-01,0.000000000000000000e+00,0.000000000000000000e+00,1.000000000000000000e+00
-9.790039999999999853e-02,-9.875490000000000657e-02,-3.322749999999999870e-01,5.372549019607842924e-01,5.215686274509804266e-01,4.941176470588234948e-01,3.949759999999999938e-01,3.949759999999999938e-01,8.294500000000000206e-01
-9.631349999999999634e-02,-9.875490000000000657e-02,-3.322749999999999870e-01,5.333333333333333259e-01,5.176470588235294601e-01,4.901960784313724728e-01,1.099900000000000044e-01,2.199790000000000079e-01,9.692840000000000344e-01
-9.472659999999999414e-02,-9.875490000000000657e-02,-3.322749999999999870e-01,5.294117647058823595e-01,5.019607843137254832e-01,4.784313725490195734e-01,2.208420000000000105e-01,4.416840000000000210e-01,8.695650000000000324e-01
-9.344479999999999453e-02,-9.906009999999999815e-02,-3.332519999999999927e-01,5.098039215686274161e-01,4.823529411764705954e-01,4.588235294117646856e-01,0.000000000000000000e+00,3.243510000000000004e-01,9.459370000000000278e-01
-9.161379999999999524e-02,-9.875490000000000657e-02,-3.322749999999999870e-01,5.137254901960783826e-01,4.862745098039215064e-01,4.627450980392157076e-01,-3.047039999999999749e-01,3.047039999999999749e-01,9.023919999999999719e-01
-6.756589999999999818e-02,-9.191889999999999783e-02,-3.090820000000000234e-01,2.588235294117646745e-01,1.960784313725489891e-01,1.686274509803921129e-01,2.442729999999999901e-01,-4.919390000000000152e-01,8.356599999999999584e-01
-6.317140000000000255e-02,-9.191889999999999783e-02,-3.090820000000000234e-01,3.372549019607842813e-01,2.470588235294116919e-01,1.647058823529410909e-01,1.794949999999999879e-01,-4.343770000000000131e-01,8.826650000000000329e-01
-6.188960000000000294e-02,-9.216309999999999780e-02,-3.100589999999999735e-01,4.117647058823529216e-01,3.294117647058822929e-01,2.000000000000000111e-01,1.803649999999999975e-01,-4.328759999999999830e-01,8.832250000000000378e-01
-6.042480000000000073e-02,-9.216309999999999780e-02,-3.100589999999999735e-01,4.000000000000000222e-01,3.176470588235293935e-01,1.882352941176470007e-01,0.000000000000000000e+00,-4.830769999999999786e-01,8.755779999999999674e-01
-5.895999999999999852e-02,-9.216309999999999780e-02,-3.100589999999999735e-01,3.254901960784313819e-01,2.235294117647058931e-01,1.098039215686273939e-01,1.771089999999999887e-01,-4.303759999999999808e-01,8.851040000000000019e-01
-5.746459999999999763e-02,-9.216309999999999780e-02,-3.100589999999999735e-01,3.333333333333333148e-01,2.431372549019606977e-01,1.254901960784312875e-01,0.000000000000000000e+00,-4.767629999999999924e-01,8.790320000000000356e-01
-5.599980000000000235e-02,-9.216309999999999780e-02,-3.100589999999999735e-01,3.450980392156862142e-01,2.627450980392156965e-01,1.411764705882352922e-01,1.729569999999999996e-01,-4.270990000000000064e-01,8.875089999999999923e-01
-5.468750000000000000e-02,-9.246830000000000327e-02,-3.110350000000000059e-01,3.019607843137254166e-01,2.274509803921568041e-01,1.137254901960784020e-01,5.372080000000000188e-01,-2.631220000000000225e-01,8.013580000000000148e-01
-5.337519999999999765e-02,-9.277340000000000586e-02,-3.120120000000000116e-01,2.588235294117646745e-01,1.843137254901960898e-01,1.176470588235293963e-01,5.355349999999999833e-01,-2.640989999999999727e-01,8.021559999999999802e-01
-5.206299999999999817e-02,-9.307859999999999745e-02,-3.129879999999999884e-01,1.725490196078431071e-01,1.176470588235293963e-01,5.882352941176469813e-02,5.823639999999999928e-01,-2.590759999999999730e-01,7.705400000000000027e-01
-1.051639999999999936e-01,-9.973139999999999783e-02,-3.300779999999999825e-01,5.647058823529411686e-01,5.450980392156862253e-01,5.294117647058823595e-01,-1.970059999999999867e-01,1.970059999999999867e-01,9.604049999999999532e-01
-1.035770000000000024e-01,-9.973139999999999783e-02,-3.300779999999999825e-01,5.843137254901961120e-01,5.647058823529411686e-01,5.490196078431373028e-01,2.266029999999999989e-01,4.444910000000000250e-01,8.666479999999999739e-01
-1.023560000000000025e-01,-1.000370000000000009e-01,-3.310549999999999882e-01,5.764705882352940680e-01,5.568627450980392357e-01,5.411764705882352589e-01,2.236869999999999969e-01,4.430720000000000214e-01,8.681309999999999860e-01
-1.007689999999999975e-01,-1.000370000000000009e-01,-3.310549999999999882e-01,5.647058823529411686e-01,5.450980392156862253e-01,5.294117647058823595e-01,1.099900000000000044e-01,2.199790000000000079e-01,9.692840000000000344e-01
-9.918209999999999527e-02,-1.000370000000000009e-01,-3.310549999999999882e-01,5.568627450980392357e-01,5.450980392156862253e-01,5.254901960784313930e-01,0.000000000000000000e+00,0.000000000000000000e+00,1.000000000000000000e+00
-9.759519999999999307e-02,-1.000370000000000009e-01,-3.310549999999999882e-01,5.607843137254902022e-01,5.411764705882352589e-01,5.254901960784313930e-01,3.949759999999999938e-01,3.949759999999999938e-01,8.294500000000000206e-01
-9.631349999999999634e-02,-1.003420000000000006e-01,-3.322749999999999870e-01,5.568627450980392357e-01,5.372549019607842924e-01,5.215686274509804266e-01,3.949759999999999938e-01,3.949759999999999938e-01,8.294500000000000206e-01
-9.472659999999999414e-02,-1.003420000000000006e-01,-3.322749999999999870e-01,5.372549019607842924e-01,5.215686274509804266e-01,4.941176470588234948e-01,0.000000000000000000e+00,0.000000000000000000e+00,1.000000000000000000e+00
-9.313960000000000294e-02,-1.003420000000000006e-01,-3.322749999999999870e-01,5.372549019607842924e-01,5.215686274509804266e-01,4.941176470588234948e-01,-2.713609999999999980e-02,3.433760000000000145e-01,9.388060000000000294e-01
-9.161379999999999524e-02,-1.003420000000000006e-01,-3.322749999999999870e-01,5.490196078431373028e-01,5.333333333333333259e-01,5.058823529411764497e-01,-3.252419999999999756e-01,3.172010000000000107e-01,8.908430000000000515e-01
-6.781009999999999815e-02,-9.368899999999999451e-02,-3.100589999999999735e-01,2.666666666666666075e-01,2.235294117647058931e-01,1.882352941176470007e-01,-1.901569999999999927e-01,-5.731129999999999836e-01,7.971089999999999565e-01
-6.628420000000000145e-02,-9.368899999999999451e-02,-3.100589999999999735e-01,2.549019607843137081e-01,2.000000000000000111e-01,1.686274509803921129e-01,0.000000000000000000e+00,-4.830769999999999786e-01,8.755779999999999674e-01
-6.481929999999999636e-02,-9.368899999999999451e-02,-3.100589999999999735e-01,2.392156862745097867e-01,1.843137254901960898e-01,1.529411764705881915e-01,0.000000000000000000e+00,-4.830769999999999786e-01,8.755779999999999674e-01
-6.335449999999999415e-02,-9.368899999999999451e-02,-3.100589999999999735e-01,2.392156862745097867e-01,1.843137254901960898e-01,1.529411764705881915e-01,0.000000000000000000e+00,-4.830769999999999786e-01,8.755779999999999674e-01
-6.188960000000000294e-02,-9.368899999999999451e-02,-3.100589999999999735e-01,2.274509803921568041e-01,1.686274509803921129e-01,1.294117647058823095e-01,9.444429999999999492e-02,-3.645550000000000179e-01,9.263799999999999812e-01
-6.042480000000000073e-02,-9.368899999999999451e-02,-3.100589999999999735e-01,2.039215686274508943e-01,1.450980392156862864e-01,1.058823529411763997e-01,0.000000000000000000e+00,-2.840880000000000072e-01,9.587980000000000391e-01
-5.895999999999999852e-02,-9.368899999999999451e-02,-3.100589999999999735e-01,1.686274509803921129e-01,1.098039215686273939e-01,7.058823529411760445e-02,2.050949999999999995e-01,-2.030019999999999880e-01,9.574580000000000313e-01
-5.764770000000000311e-02,-9.399409999999999710e-02,-3.110350000000000059e-01,1.725490196078431071e-01,1.137254901960784020e-01,6.666666666666659635e-02,2.050690000000000013e-01,-2.029769999999999908e-01,9.574690000000000145e-01
-5.618290000000000090e-02,-9.399409999999999710e-02,-3.110350000000000059e-01,1.764705882352941013e-01,1.215686274509802933e-01,6.274509803921560214e-02,0.000000000000000000e+00,-2.832899999999999863e-01,9.590340000000000531e-01
-5.468750000000000000e-02,-9.399409999999999710e-02,-3.110350000000000059e-01,1.411764705882352922e-01,8.235294117647050383e-02,4.313725490196070045e-02,4.135320000000000107e-01,-1.033830000000000027e-01,9.046009999999999884e-01
-5.337519999999999765e-02,-9.429930000000000256e-02,-3.120120000000000116e-01,2.039215686274508943e-01,1.607843137254902077e-01,1.333333333333333037e-01,5.970109999999999584e-01,0.000000000000000000e+00,8.022329999999999739e-01
-5.206299999999999817e-02,-9.454350000000000254e-02,-3.129879999999999884e-01,2.039215686274508943e-01,1.764705882352941013e-01,1.450980392156862864e-01,6.419369999999999798e-01,0.000000000000000000e+00,7.667580000000000506e-01
-1.083370000000000027e-01,-1.013180000000000053e-01,-3.300779999999999825e-01,5.960784313725490113e-01,5.843137254901961120e-01,5.647058823529411686e-01,0.000000000000000000e+00,3.285210000000000075e-01,9.444970000000000310e-01
-1.067499999999999977e-01,-1.013180000000000053e-01,-3.300779999999999825e-01,5.843137254901961120e-01,5.725490196078431016e-01,5.529411764705882693e-01,0.000000000000000000e+00,3.285210000000000075e-01,9.444970000000000310e-01
-1.051639999999999936e-01,-1.013180000000000053e-01,-3.300779999999999825e-01,5.764705882352940680e-01,5.647058823529411686e-01,5.450980392156862253e-01,-1.034500000000000003e-01,1.034500000000000003e-01,9.892400000000000082e-01
-1.035770000000000024e-01,-1.013180000000000053e-01,-3.300779999999999825e-01,5.764705882352940680e-01,5.568627450980392357e-01,5.411764705882352589e-01,0.000000000000000000e+00,0.000000000000000000e+00,1.000000000000000000e+00
-1.020510000000000028e-01,-1.013180000000000053e-01,-3.300779999999999825e-01,5.764705882352940680e-01,5.568627450980392357e-01,5.411764705882352589e-01,1.144949999999999996e-01,2.245870000000000088e-01,9.677040000000000086e-01
-1.004639999999999977e-01,-1.013180000000000053e-01,-3.300779999999999825e-01,5.843137254901961120e-01,5.647058823529411686e-01,5.490196078431373028e-01,2.205090000000000106e-01,4.496649999999999814e-01,8.655500000000000416e-01
-9.918209999999999527e-02,-1.016240000000000060e-01,-3.310549999999999882e-01,5.803921568627451455e-01,5.686274509803921351e-01,5.490196078431373028e-01,3.352859999999999729e-01,3.396399999999999975e-01,8.787650000000000183e-01
-9.600830000000000475e-02,-1.016240000000000060e-01,-3.310549999999999882e-01,5.647058823529411686e-01,5.490196078431373028e-01,5.215686274509804266e-01,5.177370000000000028e-01,2.588679999999999870e-01,8.154360000000000497e-01
-6.970210000000000294e-02,-9.576419999999999377e-02,-3.120120000000000116e-01,4.235294117647058765e-01,4.078431372549018996e-01,3.803921568627450789e-01,-3.013810000000000100e-01,3.097530000000000006e-01,9.017889999999999517e-01
-6.799320000000000364e-02,-9.545900000000000218e-02,-3.110350000000000059e-01,3.686274509803921795e-01,3.411764705882353033e-01,3.176470588235293935e-01,-3.481420000000000070e-01,-1.776979999999999948e-01,9.204459999999999864e-01
-6.652829999999999855e-02,-9.545900000000000218e-02,-3.110350000000000059e-01,3.529411764705882026e-01,3.176470588235293935e-01,2.823529411764705843e-01,0.000000000000000000e+00,-2.906569999999999987e-01,9.568269999999999831e-01
-6.506349999999999634e-02,-9.545900000000000218e-02,-3.110350000000000059e-01,3.215686274509804154e-01,2.862745098039214953e-01,2.509803921568626861e-01,-9.758999999999999619e-02,-1.951799999999999924e-01,9.758999999999999897e-01
-6.353759999999999963e-02,-9.545900000000000218e-02,-3.110350000000000059e-01,3.137254901960784270e-01,2.862745098039214953e-01,2.470588235294116919e-01,0.000000000000000000e+00,0.000000000000000000e+00,1.000000000000000000e+00
-6.210330000000000017e-02,-9.545900000000000218e-02,-3.110350000000000059e-01,2.980392156862745057e-01,2.627450980392156965e-01,2.274509803921568041e-01,0.000000000000000000e+00,0.000000000000000000e+00,1.000000000000000000e+00
-6.060789999999999927e-02,-9.545900000000000218e-02,-3.110350000000000059e-01,2.941176470588234837e-01,2.666666666666666075e-01,2.274509803921568041e-01,0.000000000000000000e+00,0.000000000000000000e+00,1.000000000000000000e+00
-5.914309999999999706e-02,-9.545900000000000218e-02,-3.110350000000000059e-01,2.666666666666666075e-01,2.509803921568626861e-01,2.156862745098039047e-01,0.000000000000000000e+00,2.292590000000000166e-03,9.999970000000000248e-01
-5.764770000000000311e-02,-9.545900000000000218e-02,-3.110350000000000059e-01,2.666666666666666075e-01,2.509803921568626861e-01,2.156862745098039047e-01,1.165800000000000031e-01,2.331590000000000051e-01,9.654249999999999776e-01
-5.337519999999999765e-02,-9.576419999999999377e-02,-3.120120000000000116e-01,2.941176470588234837e-01,2.784313725490196179e-01,2.431372549019606977e-01,6.131210000000000271e-01,3.065609999999999724e-01,7.280820000000000070e-01
-1.098630000000000023e-01,-1.028440000000000049e-01,-3.300779999999999825e-01,6.039215686274509443e-01,5.921568627450980449e-01,5.803921568627451455e-01,0.000000000000000000e+00,0.000000000000000000e+00,1.000000000000000000e+00
-1.083370000000000027e-01,-1.028440000000000049e-01,-3.300779999999999825e-01,5.999999999999999778e-01,5.882352941176470784e-01,5.764705882352940680e-01,0.000000000000000000e+00,0.000000000000000000e+00,1.000000000000000000e+00
-1.067499999999999977e-01,-1.028440000000000049e-01,-3.300779999999999825e-01,5.960784313725490113e-01,5.843137254901961120e-01,5.725490196078431016e-01,0.000000000000000000e+00,0.000000000000000000e+00,1.000000000000000000e+00
-1.051639999999999936e-01,-1.028440000000000049e-01,-3.300779999999999825e-01,5.843137254901961120e-01,5.725490196078431016e-01,5.607843137254902022e-01,0.000000000000000000e+00,0.000000000000000000e+00,1.000000000000000000e+00
-1.035770000000000024e-01,-1.028440000000000049e-01,-3.300779999999999825e-01,5.803921568627451455e-01,5.686274509803921351e-01,5.568627450980392357e-01,0.000000000000000000e+00,0.000000000000000000e+00,1.000000000000000000e+00
-1.020510000000000028e-01,-1.028440000000000049e-01,-3.300779999999999825e-01,5.999999999999999778e-01,5.882352941176470784e-01,5.686274509803921351e-01,0.000000000000000000e+00,0.000000000000000000e+00,1.000000000000000000e+00
-1.004639999999999977e-01,-1.028440000000000049e-01,-3.300779999999999825e-01,5.843137254901961120e-01,5.647058823529411686e-01,5.490196078431373028e-01,0.000000000000000000e+00,0.000000000000000000e+00,1.000000000000000000e+00
-9.887700000000000655e-02,-1.028440000000000049e-01,-3.300779999999999825e-01,5.882352941176470784e-01,5.686274509803921351e-01,5.529411764705882693e-01,4.414159999999999751e-01,4.500709999999999988e-01,7.762649999999999828e-01
-7.122799999999999965e-02,-9.722899999999999598e-02,-3.120120000000000116e-01,4.627450980392157076e-01,4.352941176470587759e-01,4.117647058823529216e-01,-4.567559999999999953e-01,4.640059999999999740e-01,7.589939999999999465e-01
-6.945800000000000585e-02,-9.692380000000000440e-02,-3.110350000000000059e-01,4.431372549019607088e-01,4.274509803921567874e-01,4.000000000000000222e-01,-2.044989999999999863e-01,5.240299999999999958e-01,8.267849999999999921e-01
-6.799320000000000364e-02,-9.692380000000000440e-02,-3.110350000000000059e-01,4.392156862745097978e-01,3.960784313725490002e-01,3.764705882352941124e-01,-1.103449999999999986e-01,4.459759999999999835e-01,8.882170000000000343e-01
-6.652829999999999855e-02,-9.692380000000000440e-02,-3.110350000000000059e-01,3.921568627450979783e-01,3.647058823529411020e-01,3.333333333333333148e-01,0.000000000000000000e+00,3.487339999999999884e-01,9.372219999999999995e-01
-6.506349999999999634e-02,-9.692380000000000440e-02,-3.110350000000000059e-01,3.921568627450979783e-01,3.647058823529411020e-01,3.254901960784313819e-01,-2.147119999999999862e-01,2.147119999999999862e-01,9.527839999999999643e-01
-5.895999999999999852e-02,-9.661870000000000180e-02,-3.100589999999999735e-01,3.607843137254901911e-01,3.529411764705882026e-01,3.137254901960784270e-01,0.000000000000000000e+00,6.441360000000000419e-01,7.649110000000000076e-01
-5.322269999999999779e-02,-9.692380000000000440e-02,-3.110350000000000059e-01,3.686274509803921795e-01,3.529411764705882026e-01,3.176470588235293935e-01,3.171640000000000015e-01,6.365300000000000402e-01,7.030189999999999495e-01
-1.067499999999999977e-01,-1.044309999999999961e-01,-3.300779999999999825e-01,6.039215686274509443e-01,5.921568627450980449e-01,5.803921568627451455e-01,0.000000000000000000e+00,0.000000000000000000e+00,1.000000000000000000e+00
-1.051639999999999936e-01,-1.044309999999999961e-01,-3.300779999999999825e-01,5.999999999999999778e-01,5.882352941176470784e-01,5.764705882352940680e-01,0.000000000000000000e+00,0.000000000000000000e+00,1.000000000000000000e+00
-1.035770000000000024e-01,-1.044309999999999961e-01,-3.300779999999999825e-01,6.117647058823529882e-01,5.999999999999999778e-01,5.882352941176470784e-01,1.036190000000000028e-01,-9.963389999999999747e-02,9.896139999999999937e-01
-1.020510000000000028e-01,-1.044309999999999961e-01,-3.300779999999999825e-01,6.039215686274509443e-01,5.843137254901961120e-01,5.764705882352940680e-01,0.000000000000000000e+00,-2.717479999999999896e-01,9.623680000000000012e-01
-1.004639999999999977e-01,-1.044309999999999961e-01,-3.300779999999999825e-01,5.999999999999999778e-01,5.803921568627451455e-01,5.647058823529411686e-01,0.000000000000000000e+00,-1.892860000000000098e-01,9.819219999999999615e-01
-9.759519999999999307e-02,-1.047359999999999958e-01,-3.310549999999999882e-01,5.803921568627451455e-01,5.647058823529411686e-01,5.372549019607842924e-01,1.376509999999999956e-01,-5.257100000000000106e-01,8.394530000000000047e-01
-9.472659999999999414e-02,-1.051030000000000020e-01,-3.322749999999999870e-01,5.803921568627451455e-01,5.647058823529411686e-01,5.372549019607842924e-01,5.354039999999999910e-01,-1.919879999999999920e-01,8.224860000000000504e-01
