X,Y,Z,R,G,B,nX,nY,nZ
7.064820000000000301e-03,-6.099699999999999567e-03,-3.674319999999999808e-01,7.725490196078431682e-01,3.529411764705882026e-01,9.019607843137250613e-02,-2.618759999999999977e-01,2.620660000000000212e-01,9.288389999999999702e-01
8.811950000000000685e-03,-6.099699999999999567e-03,-3.674319999999999808e-01,7.647058823529411242e-01,3.529411764705882026e-01,1.137254901960784020e-01,-4.070309999999999762e-01,8.583880000000000676e-02,9.093719999999999581e-01
1.052860000000000081e-02,-6.080630000000000063e-03,-3.662110000000000087e-01,7.333333333333332815e-01,3.294117647058822929e-01,1.137254901960784020e-01,-3.326029999999999820e-01,0.000000000000000000e+00,9.430669999999999886e-01
1.227570000000000050e-02,-6.080630000000000063e-03,-3.662110000000000087e-01,7.176470588235294157e-01,3.137254901960784270e-01,9.803921568627449457e-02,-2.723780000000000090e-01,0.000000000000000000e+00,9.621899999999999897e-01
1.397709999999999925e-02,-6.065369999999999616e-03,-3.652340000000000031e-01,7.019607843137254388e-01,2.980392156862745057e-01,8.235294117647050383e-02,-2.731239999999999779e-01,0.000000000000000000e+00,9.619790000000000285e-01
1.571660000000000071e-02,-6.065369999999999616e-03,-3.652340000000000031e-01,6.745098039215686736e-01,2.666666666666666075e-01,7.058823529411760445e-02,0.000000000000000000e+00,0.000000000000000000e+00,1.000000000000000000e+00
1.745609999999999870e-02,-6.065369999999999616e-03,-3.652340000000000031e-01,6.705882352941175961e-01,2.705882352941175739e-01,7.843137254901960675e-02,0.000000000000000000e+00,0.000000000000000000e+00,1.000000000000000000e+00
1.919560000000000016e-02,-6.065369999999999616e-03,-3.652340000000000031e-01,6.470588235294117974e-01,2.470588235294116919e-01,5.490196078431369697e-02,2.669980000000000131e-01,0.000000000000000000e+00,9.636970000000000258e-01
2.098080000000000084e-02,-6.080630000000000063e-03,-3.662110000000000087e-01,6.117647058823529882e-01,2.196078431372548989e-01,2.745098039215679991e-02,2.659290000000000265e-01,0.000000000000000000e+00,9.639929999999999888e-01
-9.017940000000000331e-03,-8.163449999999999179e-03,-3.823239999999999972e-01,7.686274509803922017e-01,5.215686274509804266e-01,3.686274509803921795e-01,-8.427499999999999991e-01,-2.661310000000000064e-03,5.382989999999999720e-01
-7.122039999999999621e-03,-8.079529999999999698e-03,-3.784179999999999766e-01,8.980392156862745390e-01,4.705882352941175850e-01,2.039215686274508943e-01,-7.569470000000000365e-01,-3.027150000000000118e-01,5.791330000000000089e-01
-5.290989999999999756e-03,-8.041380000000000750e-03,-3.764649999999999941e-01,9.098039215686274384e-01,4.784313725490195734e-01,2.000000000000000111e-01,-6.435729999999999507e-01,-1.977849999999999886e-01,7.393889999999999629e-01
-3.494259999999999901e-03,-8.018489999999999646e-03,-3.752440000000000220e-01,9.098039215686274384e-01,4.705882352941175850e-01,1.960784313725489891e-01,-6.619660000000000544e-01,0.000000000000000000e+00,7.495340000000000336e-01
-1.698489999999999982e-03,-7.972720000000000848e-03,-3.732909999999999839e-01,9.137254901960784048e-01,4.784313725490195734e-01,2.117647058823529105e-01,-6.343109999999999582e-01,0.000000000000000000e+00,7.730780000000000429e-01
7.718799999999999349e-05,-7.949829999999999744e-03,-3.723139999999999783e-01,8.823529411764705621e-01,4.705882352941175850e-01,2.235294117647058931e-01,-5.403980000000000450e-01,7.722020000000000273e-02,8.378579999999999917e-01
1.843449999999999950e-03,-7.934570000000000164e-03,-3.713380000000000014e-01,8.274509803921568096e-01,4.117647058823529216e-01,1.921568627450979949e-01,-5.902230000000000532e-01,1.475980000000000070e-01,7.936320000000000041e-01
3.591539999999999837e-03,-7.888789999999999691e-03,-3.693850000000000189e-01,8.274509803921568096e-01,4.117647058823529216e-01,1.921568627450979949e-01,-6.431810000000000027e-01,0.000000000000000000e+00,7.657140000000000057e-01
5.332950000000000364e-03,-7.865910000000000263e-03,-3.684080000000000132e-01,8.078431372549019773e-01,3.921568627450979783e-01,1.725490196078431071e-01,-4.901469999999999994e-01,0.000000000000000000e+00,8.716399999999999704e-01
7.064820000000000301e-03,-7.843019999999999159e-03,-3.674319999999999808e-01,7.647058823529411242e-01,3.647058823529411020e-01,1.215686274509802933e-01,-2.703479999999999772e-01,0.000000000000000000e+00,9.627630000000000354e-01
8.811950000000000685e-03,-7.843019999999999159e-03,-3.674319999999999808e-01,7.490196078431372584e-01,3.490196078431371807e-01,1.058823529411763997e-01,-3.324940000000000118e-01,0.000000000000000000e+00,9.431049999999999711e-01
1.052860000000000081e-02,-7.820129999999999790e-03,-3.662110000000000087e-01,7.411764705882353255e-01,3.411764705882353033e-01,1.333333333333333037e-01,-3.322769999999999890e-01,0.000000000000000000e+00,9.431819999999999649e-01
1.227570000000000050e-02,-7.820129999999999790e-03,-3.662110000000000087e-01,7.098039215686274828e-01,3.176470588235293935e-01,1.176470588235293963e-01,-2.722849999999999993e-01,0.000000000000000000e+00,9.622169999999999890e-01
1.397709999999999925e-02,-7.804870000000000210e-03,-3.652340000000000031e-01,6.980392156862744724e-01,2.980392156862745057e-01,9.803921568627449457e-02,-2.732169999999999876e-01,0.000000000000000000e+00,9.619520000000000293e-01
1.571660000000000071e-02,-7.804870000000000210e-03,-3.652340000000000031e-01,6.941176470588235059e-01,3.058823529411764941e-01,1.215686274509802933e-01,0.000000000000000000e+00,0.000000000000000000e+00,1.000000000000000000e+00
1.745609999999999870e-02,-7.804870000000000210e-03,-3.652340000000000031e-01,6.666666666666666297e-01,2.862745098039214953e-01,1.176470588235293963e-01,0.000000000000000000e+00,0.000000000000000000e+00,1.000000000000000000e+00
1.919560000000000016e-02,-7.804870000000000210e-03,-3.652340000000000031e-01,6.431372549019608309e-01,2.549019607843137081e-01,7.843137254901960675e-02,2.671769999999999978e-01,0.000000000000000000e+00,9.636470000000000313e-01
2.098080000000000084e-02,-7.820129999999999790e-03,-3.662110000000000087e-01,6.156862745098039547e-01,2.313725490196077983e-01,2.745098039215679991e-02,2.657499999999999862e-01,0.000000000000000000e+00,9.640419999999999545e-01
-8.987429999999999378e-03,-9.956359999999999169e-03,-3.813480000000000203e-01,8.196078431372548767e-01,4.901960784313724728e-01,2.941176470588234837e-01,-7.188499999999999890e-01,-1.202280000000000015e-01,6.846889999999999921e-01
-7.141109999999999992e-03,-9.910580000000000431e-03,-3.793949999999999823e-01,8.862745098039215286e-01,4.666666666666666741e-01,2.117647058823529105e-01,-7.847760000000000291e-01,-1.575080000000000091e-01,5.994310000000000471e-01
-5.306240000000000262e-03,-9.857180000000000109e-03,-3.774410000000000265e-01,9.098039215686274384e-01,4.784313725490195734e-01,2.000000000000000111e-01,-7.378500000000000059e-01,-1.734020000000000006e-01,6.523109999999999742e-01
-3.494259999999999901e-03,-9.803769999999999846e-03,-3.752440000000000220e-01,9.215686274509804488e-01,4.862745098039215064e-01,2.196078431372548989e-01,-7.258350000000000080e-01,-6.150919999999999999e-02,6.851129999999999720e-01
-1.698489999999999982e-03,-9.750369999999999523e-03,-3.732909999999999839e-01,9.058823529411763609e-01,4.705882352941175850e-01,2.196078431372548989e-01,-6.343990000000000462e-01,0.000000000000000000e+00,7.730050000000000532e-01
7.718799999999999349e-05,-9.727480000000000154e-03,-3.723139999999999783e-01,8.745098039215686292e-01,4.627450980392157076e-01,2.156862745098039047e-01,-6.376899999999999791e-01,0.000000000000000000e+00,7.702930000000000055e-01
1.838680000000000089e-03,-9.674069999999999891e-03,-3.703609999999999958e-01,8.352941176470588536e-01,4.235294117647058765e-01,1.843137254901960898e-01,-5.906090000000000506e-01,1.474949999999999872e-01,7.933639999999999581e-01
3.591539999999999837e-03,-9.643550000000000733e-03,-3.693850000000000189e-01,8.235294117647058432e-01,4.235294117647058765e-01,1.725490196078431071e-01,-5.456980000000000164e-01,7.789050000000000140e-02,8.343540000000000401e-01
5.332950000000000364e-03,-9.620669999999999569e-03,-3.684080000000000132e-01,7.921568627450980005e-01,3.921568627450979783e-01,1.411764705882352922e-01,-4.901469999999999994e-01,0.000000000000000000e+00,8.716399999999999704e-01
7.064820000000000301e-03,-9.590150000000000410e-03,-3.674319999999999808e-01,7.411764705882353255e-01,3.294117647058822929e-01,9.019607843137250613e-02,-3.690620000000000012e-01,1.084360000000000046e-01,9.230570000000000164e-01
8.811950000000000685e-03,-9.590150000000000410e-03,-3.674319999999999808e-01,7.568627450980391913e-01,3.529411764705882026e-01,1.294117647058823095e-01,-2.234059999999999935e-01,2.234059999999999935e-01,9.487780000000000102e-01
1.052860000000000081e-02,-9.567259999999999306e-03,-3.662110000000000087e-01,7.372549019607843590e-01,3.490196078431371807e-01,1.294117647058823095e-01,-4.084050000000000180e-01,8.615820000000000423e-02,9.087260000000000337e-01
1.227570000000000050e-02,-9.567259999999999306e-03,-3.662110000000000087e-01,7.176470588235294157e-01,3.333333333333333148e-01,1.294117647058823095e-01,-1.827789999999999970e-01,1.827789999999999970e-01,9.660149999999999570e-01
1.397709999999999925e-02,-9.536740000000000148e-03,-3.652340000000000031e-01,7.058823529411765163e-01,3.215686274509804154e-01,1.176470588235293963e-01,-2.732169999999999876e-01,0.000000000000000000e+00,9.619520000000000293e-01
1.571660000000000071e-02,-9.536740000000000148e-03,-3.652340000000000031e-01,6.901960784313725394e-01,3.137254901960784270e-01,1.254901960784312875e-01,0.000000000000000000e+00,0.000000000000000000e+00,1.000000000000000000e+00
1.745609999999999870e-02,-9.536740000000000148e-03,-3.652340000000000031e-01,6.431372549019608309e-01,2.823529411764705843e-01,1.058823529411763997e-01,0.000000000000000000e+00,0.000000000000000000e+00,1.000000000000000000e+00
1.919560000000000016e-02,-9.536740000000000148e-03,-3.652340000000000031e-01,6.313725490196078205e-01,2.470588235294116919e-01,5.098039215686270276e-02,2.671780000000000266e-01,0.000000000000000000e+00,9.636470000000000313e-01
2.098080000000000084e-02,-9.567259999999999306e-03,-3.662110000000000087e-01,6.117647058823529882e-01,2.274509803921568041e-01,3.137254901960780107e-02,2.657499999999999862e-01,0.000000000000000000e+00,9.640419999999999545e-01
-9.017940000000000331e-03,-1.180269999999999930e-02,-3.823239999999999972e-01,8.784313725490195957e-01,4.666666666666666741e-01,2.274509803921568041e-01,-7.764109999999999623e-01,-2.257139999999999980e-01,5.884209999999999718e-01
-7.160190000000000304e-03,-1.174159999999999961e-02,-3.803710000000000147e-01,9.019607843137256165e-01,4.745098039215686070e-01,2.078431372549018885e-01,-7.546720000000000095e-01,-2.149379999999999902e-01,6.198970000000000313e-01
-5.306240000000000262e-03,-1.165010000000000004e-02,-3.774410000000000265e-01,9.098039215686274384e-01,4.784313725490195734e-01,2.000000000000000111e-01,-8.018049999999999899e-01,-1.525859999999999994e-01,5.777769999999999850e-01
-3.494259999999999901e-03,-1.158909999999999975e-02,-3.752440000000000220e-01,9.098039215686274384e-01,4.784313725490195734e-01,2.000000000000000111e-01,-7.547460000000000280e-01,0.000000000000000000e+00,6.560169999999999613e-01
-1.698489999999999982e-03,-1.152800000000000005e-02,-3.732909999999999839e-01,9.019607843137256165e-01,4.705882352941175850e-01,2.313725490196077983e-01,-6.343990000000000462e-01,0.000000000000000000e+00,7.730050000000000532e-01
7.718799999999999349e-05,-1.149750000000000077e-02,-3.723139999999999783e-01,8.823529411764705621e-01,4.588235294117646856e-01,2.235294117647058931e-01,-6.376899999999999791e-01,0.000000000000000000e+00,7.702930000000000055e-01
1.838680000000000089e-03,-1.143650000000000048e-02,-3.703609999999999958e-01,8.078431372549019773e-01,3.960784313725490002e-01,1.490196078431371973e-01,-6.405020000000000158e-01,0.000000000000000000e+00,7.679570000000000007e-01
3.591539999999999837e-03,-1.140590000000000007e-02,-3.693850000000000189e-01,8.078431372549019773e-01,3.960784313725490002e-01,1.568627450980392135e-01,-4.879049999999999776e-01,0.000000000000000000e+00,8.728970000000000340e-01
5.332950000000000364e-03,-1.137540000000000079e-02,-3.684080000000000132e-01,7.843137254901960675e-01,3.725490196078430905e-01,1.333333333333333037e-01,-4.901469999999999994e-01,0.000000000000000000e+00,8.716399999999999704e-01
7.064820000000000301e-03,-1.133729999999999981e-02,-3.674319999999999808e-01,7.568627450980391913e-01,3.568627450980392246e-01,1.215686274509802933e-01,-5.364820000000000144e-01,0.000000000000000000e+00,8.439119999999999955e-01
8.789059999999999581e-03,-1.130680000000000053e-02,-3.662110000000000087e-01,7.607843137254901578e-01,3.568627450980392246e-01,1.333333333333333037e-01,-2.237240000000000062e-01,2.232359999999999900e-01,9.487430000000000030e-01
1.052860000000000081e-02,-1.130680000000000053e-02,-3.662110000000000087e-01,7.411764705882353255e-01,3.450980392156862142e-01,1.254901960784312875e-01,-3.713870000000000227e-01,1.091189999999999938e-01,9.220439999999999747e-01
1.223750000000000011e-02,-1.127620000000000011e-02,-3.652340000000000031e-01,7.215686274509803821e-01,3.294117647058822929e-01,1.215686274509802933e-01,-1.827680000000000138e-01,1.831679999999999975e-01,9.659429999999999961e-01
1.397709999999999925e-02,-1.127620000000000011e-02,-3.652340000000000031e-01,7.019607843137254388e-01,3.176470588235293935e-01,1.058823529411763997e-01,-9.336229999999999529e-02,9.336229999999999529e-02,9.912450000000000427e-01
1.571660000000000071e-02,-1.127620000000000011e-02,-3.652340000000000031e-01,6.705882352941175961e-01,2.980392156862745057e-01,9.019607843137250613e-02,0.000000000000000000e+00,0.000000000000000000e+00,1.000000000000000000e+00
1.745609999999999870e-02,-1.127620000000000011e-02,-3.652340000000000031e-01,6.627450980392156632e-01,2.901960784313725727e-01,9.019607843137250613e-02,0.000000000000000000e+00,0.000000000000000000e+00,1.000000000000000000e+00
1.919560000000000016e-02,-1.127620000000000011e-02,-3.652340000000000031e-01,6.235294117647058876e-01,2.392156862745097867e-01,4.313725490196070045e-02,2.671769999999999978e-01,0.000000000000000000e+00,9.636470000000000313e-01
2.098080000000000084e-02,-1.130680000000000053e-02,-3.662110000000000087e-01,6.235294117647058876e-01,2.313725490196077983e-01,3.921568627450980338e-02,2.657499999999999862e-01,0.000000000000000000e+00,9.640419999999999545e-01
-1.091770000000000067e-02,-1.373289999999999927e-02,-3.854980000000000073e-01,7.058823529411765163e-01,2.627450980392156965e-01,9.803921568627449457e-02,-7.396019999999999817e-01,0.000000000000000000e+00,6.730439999999999756e-01
-9.040829999999999700e-03,-1.366419999999999961e-02,-3.833010000000000028e-01,8.862745098039215286e-01,4.588235294117646856e-01,2.078431372549018885e-01,-8.173949999999999827e-01,-9.733200000000000185e-02,5.677950000000000497e-01
-7.160190000000000304e-03,-1.355740000000000070e-02,-3.803710000000000147e-01,9.019607843137256165e-01,4.784313725490195734e-01,2.000000000000000111e-01,-7.733100000000000529e-01,-5.520320000000000088e-02,6.316199999999999593e-01
-5.321499999999999841e-03,-1.348109999999999933e-02,-3.784179999999999766e-01,9.137254901960784048e-01,4.823529411764705954e-01,1.960784313725489891e-01,-8.238640000000000407e-01,-9.804179999999999839e-02,5.582439999999999625e-01
-3.494259999999999901e-03,-1.337430000000000042e-02,-3.752440000000000220e-01,9.215686274509804488e-01,4.862745098039215064e-01,2.196078431372548989e-01,-7.967739999999999823e-01,-5.373329999999999773e-02,6.018829999999999458e-01
-1.698489999999999982e-03,-1.330570000000000017e-02,-3.732909999999999839e-01,9.098039215686274384e-01,4.862745098039215064e-01,2.431372549019606977e-01,-6.343990000000000462e-01,0.000000000000000000e+00,7.730050000000000532e-01
7.718799999999999349e-05,-1.326749999999999978e-02,-3.723139999999999783e-01,8.509803921568627194e-01,4.509803921568626972e-01,2.078431372549018885e-01,-6.376899999999999791e-01,0.000000000000000000e+00,7.702930000000000055e-01
1.838680000000000089e-03,-1.319889999999999952e-02,-3.703609999999999958e-01,8.431372549019607865e-01,4.392156862745097978e-01,2.156862745098039047e-01,-6.405020000000000158e-01,0.000000000000000000e+00,7.679570000000000007e-01
3.591539999999999837e-03,-1.316069999999999914e-02,-3.693850000000000189e-01,8.117647058823529438e-01,4.156862745098038880e-01,1.882352941176470007e-01,-4.879060000000000064e-01,0.000000000000000000e+00,8.728960000000000052e-01
5.332950000000000364e-03,-1.312259999999999989e-02,-3.684080000000000132e-01,7.843137254901960675e-01,3.803921568627450789e-01,1.568627450980392135e-01,-4.901469999999999994e-01,0.000000000000000000e+00,8.716399999999999704e-01
7.064820000000000301e-03,-1.309199999999999947e-02,-3.674319999999999808e-01,7.686274509803922017e-01,3.647058823529411020e-01,1.411764705882352922e-01,-5.364820000000000144e-01,0.000000000000000000e+00,8.439119999999999955e-01
8.789059999999999581e-03,-1.305390000000000023e-02,-3.662110000000000087e-01,7.764705882352941346e-01,3.882352941176470118e-01,1.607843137254902077e-01,-3.328180000000000027e-01,0.000000000000000000e+00,9.429910000000000236e-01
1.052860000000000081e-02,-1.305390000000000023e-02,-3.662110000000000087e-01,7.450980392156862919e-01,3.568627450980392246e-01,1.294117647058823095e-01,-2.722859999999999725e-01,0.000000000000000000e+00,9.622159999999999602e-01
1.223750000000000011e-02,-1.301569999999999984e-02,-3.652340000000000031e-01,7.176470588235294157e-01,3.254901960784313819e-01,1.176470588235293963e-01,-2.726569999999999827e-01,0.000000000000000000e+00,9.621110000000000495e-01
1.397709999999999925e-02,-1.301569999999999984e-02,-3.652340000000000031e-01,7.019607843137254388e-01,3.098039215686274050e-01,1.019607843137254055e-01,0.000000000000000000e+00,0.000000000000000000e+00,1.000000000000000000e+00
1.571660000000000071e-02,-1.301569999999999984e-02,-3.652340000000000031e-01,6.705882352941175961e-01,2.862745098039214953e-01,8.235294117647050383e-02,0.000000000000000000e+00,0.000000000000000000e+00,1.000000000000000000e+00
1.745609999999999870e-02,-1.301569999999999984e-02,-3.652340000000000031e-01,6.352941176470587870e-01,2.509803921568626861e-01,5.490196078431369697e-02,0.000000000000000000e+00,0.000000000000000000e+00,1.000000000000000000e+00
1.919560000000000016e-02,-1.301569999999999984e-02,-3.652340000000000031e-01,6.352941176470587870e-01,2.509803921568626861e-01,4.705882352941170160e-02,2.669980000000000131e-01,0.000000000000000000e+00,9.636970000000000258e-01
2.098080000000000084e-02,-1.305390000000000023e-02,-3.662110000000000087e-01,6.078431372549019107e-01,2.235294117647058931e-01,1.176470588235289938e-02,2.659290000000000265e-01,0.000000000000000000e+00,9.639929999999999888e-01
2.273560000000000164e-02,-1.305390000000000023e-02,-3.662110000000000087e-01,6.117647058823529882e-01,2.274509803921568041e-01,2.352941176470579876e-02,3.247389999999999999e-01,0.000000000000000000e+00,9.458039999999999781e-01
-1.663210000000000036e-02,-1.576229999999999992e-02,-3.903809999999999780e-01,7.725490196078431682e-01,5.843137254901961120e-01,5.098039215686274161e-01,-5.392799999999999816e-01,0.000000000000000000e+00,8.421260000000000412e-01
-1.473999999999999963e-02,-1.573180000000000064e-02,-3.894039999999999724e-01,7.215686274509803821e-01,3.882352941176470118e-01,3.254901960784313819e-01,-6.090119999999999978e-01,0.000000000000000000e+00,7.931610000000000049e-01
-1.281739999999999963e-02,-1.564029999999999934e-02,-3.874509999999999899e-01,7.372549019607843590e-01,2.901960784313725727e-01,2.039215686274508943e-01,-7.147390000000000132e-01,0.000000000000000000e+00,6.993920000000000137e-01
-1.091770000000000067e-02,-1.556399999999999971e-02,-3.854980000000000073e-01,6.901960784313725394e-01,2.392156862745097867e-01,7.450980392156859866e-02,-7.395869999999999944e-01,0.000000000000000000e+00,6.730610000000000204e-01
-9.040829999999999700e-03,-1.548770000000000008e-02,-3.833010000000000028e-01,8.666666666666666963e-01,4.431372549019607088e-01,2.000000000000000111e-01,-8.064649999999999874e-01,0.000000000000000000e+00,5.912819999999999743e-01
-7.160190000000000304e-03,-1.536560000000000009e-02,-3.803710000000000147e-01,8.862745098039215286e-01,4.627450980392157076e-01,1.843137254901960898e-01,-7.956579999999999764e-01,0.000000000000000000e+00,6.057460000000000067e-01
-5.321499999999999841e-03,-1.528170000000000049e-02,-3.784179999999999766e-01,8.941176470588235725e-01,4.627450980392157076e-01,1.764705882352941013e-01,-8.132589999999999542e-01,0.000000000000000000e+00,5.819020000000000303e-01
-3.494259999999999901e-03,-1.515960000000000051e-02,-3.752440000000000220e-01,8.901960784313724950e-01,4.627450980392157076e-01,2.039215686274508943e-01,-8.168910000000000338e-01,0.000000000000000000e+00,5.767919999999999714e-01
-1.698489999999999982e-03,-1.508329999999999914e-02,-3.732909999999999839e-01,8.745098039215686292e-01,4.549019607843137192e-01,1.921568627450979949e-01,-6.344889999999999697e-01,0.000000000000000000e+00,7.729319999999999524e-01
7.718799999999999349e-05,-1.503750000000000052e-02,-3.723139999999999783e-01,8.392156862745098200e-01,4.078431372549018996e-01,1.686274509803921129e-01,-6.376899999999999791e-01,0.000000000000000000e+00,7.702930000000000055e-01
1.838680000000000089e-03,-1.496119999999999915e-02,-3.703609999999999958e-01,8.039215686274510109e-01,3.725490196078430905e-01,1.333333333333333037e-01,-6.404119999999999813e-01,0.000000000000000000e+00,7.680320000000000480e-01
3.591539999999999837e-03,-1.491549999999999994e-02,-3.693850000000000189e-01,7.843137254901960675e-01,3.607843137254901911e-01,1.254901960784312875e-01,-4.879060000000000064e-01,0.000000000000000000e+00,8.728960000000000052e-01
5.332950000000000364e-03,-1.487729999999999955e-02,-3.684080000000000132e-01,7.607843137254901578e-01,3.372549019607842813e-01,1.019607843137254055e-01,-4.901469999999999994e-01,0.000000000000000000e+00,8.716399999999999704e-01
7.064820000000000301e-03,-1.483920000000000031e-02,-3.674319999999999808e-01,7.529411764705882248e-01,3.411764705882353033e-01,1.019607843137254055e-01,-5.364820000000000144e-01,0.000000000000000000e+00,8.439119999999999955e-01
8.789059999999999581e-03,-1.479339999999999995e-02,-3.662110000000000087e-01,7.529411764705882248e-01,3.607843137254901911e-01,1.137254901960784020e-01,-3.323849999999999860e-01,0.000000000000000000e+00,9.431439999999999824e-01
1.052860000000000081e-02,-1.479339999999999995e-02,-3.662110000000000087e-01,7.450980392156862919e-01,3.568627450980392246e-01,1.294117647058823095e-01,-2.724710000000000187e-01,0.000000000000000000e+00,9.621640000000000192e-01
1.223750000000000011e-02,-1.475519999999999957e-02,-3.652340000000000031e-01,7.215686274509803821e-01,3.294117647058822929e-01,1.294117647058823095e-01,-2.724710000000000187e-01,0.000000000000000000e+00,9.621640000000000192e-01
1.397709999999999925e-02,-1.475519999999999957e-02,-3.652340000000000031e-01,7.098039215686274828e-01,3.176470588235293935e-01,1.176470588235293963e-01,0.000000000000000000e+00,0.000000000000000000e+00,1.000000000000000000e+00
1.571660000000000071e-02,-1.475519999999999957e-02,-3.652340000000000031e-01,6.705882352941175961e-01,2.784313725490196179e-01,7.843137254901960675e-02,0.000000000000000000e+00,0.000000000000000000e+00,1.000000000000000000e+00
1.745609999999999870e-02,-1.475519999999999957e-02,-3.652340000000000031e-01,6.431372549019608309e-01,2.509803921568626861e-01,4.313725490196070045e-02,9.196580000000000032e-02,-9.196580000000000032e-02,9.915059999999999985e-01
1.919560000000000016e-02,-1.475519999999999957e-02,-3.652340000000000031e-01,6.235294117647058876e-01,2.392156862745097867e-01,3.529411764705880222e-02,1.782410000000000105e-01,-1.778510000000000091e-01,9.677799999999999736e-01
2.273560000000000164e-02,-1.479339999999999995e-02,-3.662110000000000087e-01,6.117647058823529882e-01,2.549019607843137081e-01,6.666666666666659635e-02,2.171839999999999882e-01,-2.176599999999999924e-01,9.515540000000000109e-01
-1.853940000000000102e-02,-1.766969999999999999e-02,-3.913570000000000104e-01,7.647058823529411242e-01,5.999999999999999778e-01,5.529411764705882693e-01,-5.197629999999999750e-01,-2.087569999999999981e-01,8.284120000000000372e-01
-1.663210000000000036e-02,-1.762390000000000137e-02,-3.903809999999999780e-01,7.450980392156862919e-01,4.470588235294117863e-01,4.000000000000000222e-01,-5.591509999999999536e-01,-6.946330000000000560e-02,8.261509999999999687e-01
-1.473999999999999963e-02,-1.757809999999999928e-02,-3.894039999999999724e-01,7.176470588235294157e-01,3.294117647058822929e-01,2.784313725490196179e-01,-6.089259999999999673e-01,0.000000000000000000e+00,7.932270000000000154e-01
-1.281739999999999963e-02,-1.748660000000000145e-02,-3.874509999999999899e-01,6.980392156862744724e-01,2.431372549019606977e-01,1.607843137254902077e-01,-7.147400000000000420e-01,0.000000000000000000e+00,6.993899999999999562e-01
-9.040829999999999700e-03,-1.730349999999999944e-02,-3.833010000000000028e-01,8.705882352941176627e-01,4.431372549019607088e-01,1.921568627450979949e-01,-8.065210000000000434e-01,0.000000000000000000e+00,5.912060000000000093e-01
-7.160190000000000304e-03,-1.716610000000000011e-02,-3.803710000000000147e-01,9.137254901960784048e-01,4.823529411764705954e-01,2.039215686274508943e-01,-7.955809999999999826e-01,0.000000000000000000e+00,6.058480000000000532e-01
-5.321499999999999841e-03,-1.707459999999999881e-02,-3.784179999999999766e-01,8.784313725490195957e-01,4.509803921568626972e-01,2.000000000000000111e-01,-8.133529999999999927e-01,0.000000000000000000e+00,5.817700000000000093e-01
-3.494259999999999901e-03,-1.693729999999999888e-02,-3.752440000000000220e-01,8.627450980392157298e-01,4.313725490196078094e-01,1.921568627450979949e-01,-8.167130000000000223e-01,0.000000000000000000e+00,5.770440000000000014e-01
-1.698489999999999982e-03,-1.684570000000000164e-02,-3.732909999999999839e-01,8.509803921568627194e-01,4.235294117647058765e-01,1.647058823529410909e-01,-6.341329999999999467e-01,0.000000000000000000e+00,7.732240000000000224e-01
7.718799999999999349e-05,-1.679989999999999956e-02,-3.723139999999999783e-01,8.117647058823529438e-01,3.764705882352941124e-01,1.254901960784312875e-01,-6.377819999999999601e-01,0.000000000000000000e+00,7.702170000000000405e-01
1.838680000000000089e-03,-1.672360000000000166e-02,-3.703609999999999958e-01,7.882352941176470340e-01,3.607843137254901911e-01,1.098039215686273939e-01,-6.404119999999999813e-01,0.000000000000000000e+00,7.680320000000000480e-01
3.591539999999999837e-03,-1.667789999999999898e-02,-3.693850000000000189e-01,7.843137254901960675e-01,3.725490196078430905e-01,1.411764705882352922e-01,-4.879040000000000044e-01,0.000000000000000000e+00,8.728970000000000340e-01
5.332950000000000364e-03,-1.663210000000000036e-02,-3.684080000000000132e-01,7.411764705882353255e-01,3.254901960784313819e-01,1.137254901960784020e-01,-4.901449999999999974e-01,0.000000000000000000e+00,8.716409999999999991e-01
7.064820000000000301e-03,-1.658629999999999827e-02,-3.674319999999999808e-01,7.372549019607843590e-01,3.215686274509804154e-01,1.098039215686273939e-01,-5.364510000000000112e-01,0.000000000000000000e+00,8.439320000000000155e-01
8.789059999999999581e-03,-1.654049999999999965e-02,-3.662110000000000087e-01,7.411764705882353255e-01,3.294117647058822929e-01,9.803921568627449457e-02,-3.326020000000000088e-01,0.000000000000000000e+00,9.430669999999999886e-01
1.052860000000000081e-02,-1.654049999999999965e-02,-3.662110000000000087e-01,7.450980392156862919e-01,3.411764705882353033e-01,1.176470588235293963e-01,-2.722859999999999725e-01,0.000000000000000000e+00,9.622159999999999602e-01
1.223750000000000011e-02,-1.649480000000000043e-02,-3.652340000000000031e-01,7.176470588235294157e-01,3.176470588235293935e-01,1.098039215686273939e-01,-2.726569999999999827e-01,0.000000000000000000e+00,9.621110000000000495e-01
1.397709999999999925e-02,-1.649480000000000043e-02,-3.652340000000000031e-01,6.784313725490196401e-01,2.862745098039214953e-01,8.627450980392149804e-02,0.000000000000000000e+00,0.000000000000000000e+00,1.000000000000000000e+00
1.571660000000000071e-02,-1.649480000000000043e-02,-3.652340000000000031e-01,6.705882352941175961e-01,2.705882352941175739e-01,6.274509803921560214e-02,0.000000000000000000e+00,0.000000000000000000e+00,1.000000000000000000e+00
1.745609999999999870e-02,-1.649480000000000043e-02,-3.652340000000000031e-01,6.509803921568627638e-01,2.509803921568626861e-01,4.313725490196070045e-02,2.669980000000000131e-01,0.000000000000000000e+00,9.636970000000000258e-01
1.924129999999999938e-02,-1.654049999999999965e-02,-3.662110000000000087e-01,6.431372549019608309e-01,2.431372549019606977e-01,3.529411764705880222e-02,1.779870000000000063e-01,-1.779870000000000063e-01,9.678020000000000511e-01
-2.050779999999999964e-02,-1.963809999999999861e-02,-3.933110000000000217e-01,7.333333333333332815e-01,5.999999999999999778e-01,5.607843137254902022e-01,-5.683120000000000394e-01,-1.686110000000000109e-01,8.053519999999999568e-01
-1.858519999999999964e-02,-1.957700000000000065e-02,-3.923340000000000161e-01,7.294117647058823151e-01,5.019607843137254832e-01,4.549019607843137192e-01,-5.013760000000000439e-01,-1.433339999999999892e-01,8.532750000000000057e-01
-1.667789999999999898e-02,-1.953119999999999856e-02,-3.913570000000000104e-01,7.058823529411765163e-01,3.686274509803921795e-01,3.333333333333333148e-01,-5.349690000000000278e-01,-2.674849999999999728e-01,8.014109999999999845e-01
-1.473999999999999963e-02,-1.942440000000000139e-02,-3.894039999999999724e-01,6.862745098039215730e-01,3.176470588235293935e-01,2.666666666666666075e-01,-6.556149999999999478e-01,-2.383609999999999896e-01,7.164869999999999850e-01
-1.281739999999999963e-02,-1.933290000000000008e-02,-3.874509999999999899e-01,6.666666666666666297e-01,2.392156862745097867e-01,1.568627450980392135e-01,-7.332899999999999974e-01,-1.123999999999999999e-01,6.705609999999999626e-01
-9.040829999999999700e-03,-1.913449999999999873e-02,-3.833010000000000028e-01,8.627450980392157298e-01,4.352941176470587759e-01,1.764705882352941013e-01,-8.065210000000000434e-01,0.000000000000000000e+00,5.912060000000000093e-01
-7.160190000000000304e-03,-1.898189999999999947e-02,-3.803710000000000147e-01,8.745098039215686292e-01,4.509803921568626972e-01,1.647058823529410909e-01,-7.956569999999999476e-01,0.000000000000000000e+00,6.057470000000000354e-01
-5.321499999999999841e-03,-1.887509999999999882e-02,-3.784179999999999766e-01,8.117647058823529438e-01,3.882352941176470118e-01,1.529411764705881915e-01,-8.133529999999999927e-01,0.000000000000000000e+00,5.817700000000000093e-01
-3.494259999999999901e-03,-1.872249999999999956e-02,-3.752440000000000220e-01,8.784313725490195957e-01,4.627450980392157076e-01,2.431372549019606977e-01,-8.168459999999999610e-01,0.000000000000000000e+00,5.768560000000000354e-01
-1.698489999999999982e-03,-1.863100000000000173e-02,-3.732909999999999839e-01,8.549019607843136859e-01,4.431372549019607088e-01,2.117647058823529105e-01,-6.343990000000000462e-01,0.000000000000000000e+00,7.730050000000000532e-01
7.718799999999999349e-05,-1.858519999999999964e-02,-3.723139999999999783e-01,8.431372549019607865e-01,4.862745098039215064e-01,2.980392156862745057e-01,-6.376910000000000078e-01,0.000000000000000000e+00,7.702919999999999767e-01
1.838680000000000089e-03,-1.847839999999999899e-02,-3.703609999999999958e-01,7.764705882352941346e-01,4.431372549019607088e-01,2.666666666666666075e-01,-6.406819999999999737e-01,0.000000000000000000e+00,7.678070000000000173e-01
3.591539999999999837e-03,-1.843260000000000037e-02,-3.693850000000000189e-01,8.784313725490195957e-01,5.764705882352940680e-01,4.156862745098038880e-01,-4.879069999999999796e-01,0.000000000000000000e+00,8.728960000000000052e-01
5.332950000000000364e-03,-1.837159999999999835e-02,-3.684080000000000132e-01,8.274509803921568096e-01,5.137254901960783826e-01,3.215686274509804154e-01,-4.901479999999999726e-01,0.000000000000000000e+00,8.716390000000000526e-01
7.064820000000000301e-03,-1.832579999999999973e-02,-3.674319999999999808e-01,8.313725490196078871e-01,5.137254901960783826e-01,3.137254901960784270e-01,-5.365140000000000464e-01,0.000000000000000000e+00,8.438919999999999755e-01
8.789059999999999581e-03,-1.828000000000000111e-02,-3.662110000000000087e-01,7.647058823529411242e-01,3.921568627450979783e-01,1.921568627450979949e-01,-3.323849999999999860e-01,0.000000000000000000e+00,9.431439999999999824e-01
1.052860000000000081e-02,-1.828000000000000111e-02,-3.662110000000000087e-01,7.294117647058823151e-01,3.411764705882353033e-01,1.215686274509802933e-01,-2.724710000000000187e-01,0.000000000000000000e+00,9.621640000000000192e-01
1.223750000000000011e-02,-1.823429999999999843e-02,-3.652340000000000031e-01,7.058823529411765163e-01,3.098039215686274050e-01,9.019607843137250613e-02,-2.724710000000000187e-01,0.000000000000000000e+00,9.621640000000000192e-01
1.397709999999999925e-02,-1.823429999999999843e-02,-3.652340000000000031e-01,6.705882352941175961e-01,2.745098039215685959e-01,5.490196078431369697e-02,0.000000000000000000e+00,0.000000000000000000e+00,1.000000000000000000e+00
1.571660000000000071e-02,-1.823429999999999843e-02,-3.652340000000000031e-01,6.588235294117646967e-01,2.627450980392156965e-01,4.313725490196070045e-02,0.000000000000000000e+00,0.000000000000000000e+00,1.000000000000000000e+00
1.745609999999999870e-02,-1.823429999999999843e-02,-3.652340000000000031e-01,6.509803921568627638e-01,2.549019607843137081e-01,3.529411764705880222e-02,2.669980000000000131e-01,0.000000000000000000e+00,9.636970000000000258e-01
1.924129999999999938e-02,-1.828000000000000111e-02,-3.662110000000000087e-01,6.352941176470587870e-01,2.392156862745097867e-01,1.960784313725490169e-02,2.669980000000000131e-01,0.000000000000000000e+00,9.636970000000000258e-01
2.098080000000000084e-02,-1.828000000000000111e-02,-3.662110000000000087e-01,6.078431372549019107e-01,2.078431372549018885e-01,7.843137254901899960e-03,3.251539999999999986e-01,0.000000000000000000e+00,9.456609999999999738e-01
-2.055360000000000173e-02,-2.156069999999999862e-02,-3.945310000000000206e-01,7.647058823529411242e-01,5.999999999999999778e-01,5.529411764705882693e-01,-6.931749999999999856e-01,-3.325819999999999887e-01,6.394520000000000204e-01
-1.858519999999999964e-02,-2.145390000000000144e-02,-3.923340000000000161e-01,7.058823529411765163e-01,4.235294117647058765e-01,3.882352941176470118e-01,-5.526240000000000041e-01,-2.763780000000000125e-01,7.862710000000000532e-01
-1.667789999999999898e-02,-2.139280000000000001e-02,-3.913570000000000104e-01,6.862745098039215730e-01,3.568627450980392246e-01,3.294117647058822929e-01,-5.027669999999999639e-01,-1.431860000000000077e-01,8.524810000000000443e-01
-1.477810000000000061e-02,-2.133180000000000145e-02,-3.903809999999999780e-01,6.549019607843137303e-01,3.137254901960784270e-01,2.627450980392156965e-01,-6.381890000000000063e-01,-1.275330000000000075e-01,7.592430000000000012e-01
-1.285550000000000061e-02,-2.122500000000000081e-02,-3.884279999999999955e-01,6.431372549019608309e-01,2.274509803921568041e-01,1.607843137254902077e-01,-7.409449999999999648e-01,-2.110430000000000084e-01,6.375429999999999708e-01
-9.040829999999999700e-03,-2.095030000000000156e-02,-3.833010000000000028e-01,8.392156862745098200e-01,4.313725490196078094e-01,1.725490196078431071e-01,-8.064649999999999874e-01,0.000000000000000000e+00,5.912819999999999743e-01
-7.160190000000000304e-03,-2.079769999999999883e-02,-3.803710000000000147e-01,8.627450980392157298e-01,4.470588235294117863e-01,1.647058823529410909e-01,-7.955809999999999826e-01,0.000000000000000000e+00,6.058480000000000532e-01
-5.321499999999999841e-03,-2.067570000000000172e-02,-3.784179999999999766e-01,8.588235294117646523e-01,4.313725490196078094e-01,1.725490196078431071e-01,-8.132589999999999542e-01,0.000000000000000000e+00,5.819010000000000016e-01
-3.494259999999999901e-03,-2.052309999999999898e-02,-3.752440000000000220e-01,8.313725490196078871e-01,4.196078431372549100e-01,1.725490196078431071e-01,-8.167569999999999553e-01,0.000000000000000000e+00,5.769809999999999661e-01
-1.698489999999999982e-03,-2.040099999999999900e-02,-3.732909999999999839e-01,8.705882352941176627e-01,4.745098039215686070e-01,2.470588235294116919e-01,-6.345760000000000289e-01,0.000000000000000000e+00,7.728599999999999914e-01
7.718799999999999349e-05,-2.035520000000000038e-02,-3.723139999999999783e-01,8.313725490196078871e-01,4.549019607843137192e-01,2.745098039215685959e-01,-6.376899999999999791e-01,0.000000000000000000e+00,7.702930000000000055e-01
1.838680000000000089e-03,-2.024839999999999973e-02,-3.703609999999999958e-01,8.274509803921568096e-01,4.509803921568626972e-01,2.705882352941175739e-01,-6.405020000000000158e-01,0.000000000000000000e+00,7.679570000000000007e-01
3.591539999999999837e-03,-2.018740000000000118e-02,-3.693850000000000189e-01,8.352941176470588536e-01,4.588235294117646856e-01,2.784313725490196179e-01,-4.879049999999999776e-01,0.000000000000000000e+00,8.728970000000000340e-01
5.332950000000000364e-03,-2.012629999999999975e-02,-3.684080000000000132e-01,8.274509803921568096e-01,4.823529411764705954e-01,2.901960784313725727e-01,-4.901460000000000261e-01,0.000000000000000000e+00,8.716399999999999704e-01
7.064820000000000301e-03,-2.008060000000000053e-02,-3.674319999999999808e-01,8.078431372549019773e-01,4.627450980392157076e-01,2.627450980392156965e-01,-4.548969999999999958e-01,-1.033040000000000069e-01,8.845319999999999849e-01
8.789059999999999581e-03,-2.001949999999999910e-02,-3.662110000000000087e-01,7.450980392156862919e-01,3.725490196078430905e-01,1.725490196078431071e-01,-4.131279999999999952e-01,-2.065639999999999976e-01,8.869369999999999754e-01
1.052860000000000081e-02,-2.001949999999999910e-02,-3.662110000000000087e-01,7.294117647058823151e-01,3.294117647058822929e-01,1.215686274509802933e-01,-1.832870000000000055e-01,-9.204529999999999657e-02,9.787409999999999721e-01
1.223750000000000011e-02,-1.997379999999999989e-02,-3.652340000000000031e-01,7.098039215686274828e-01,3.098039215686274050e-01,1.019607843137254055e-01,-3.460630000000000095e-01,-1.737920000000000020e-01,9.219739999999999602e-01
1.397709999999999925e-02,-1.997379999999999989e-02,-3.652340000000000031e-01,6.784313725490196401e-01,2.862745098039214953e-01,8.627450980392149804e-02,0.000000000000000000e+00,0.000000000000000000e+00,1.000000000000000000e+00
1.571660000000000071e-02,-1.997379999999999989e-02,-3.652340000000000031e-01,6.627450980392156632e-01,2.705882352941175739e-01,6.274509803921560214e-02,9.142980000000000551e-02,-9.223889999999999867e-02,9.915300000000000225e-01
1.745609999999999870e-02,-1.997379999999999989e-02,-3.652340000000000031e-01,6.470588235294117974e-01,2.509803921568626861e-01,3.137254901960780107e-02,1.779870000000000063e-01,-1.779870000000000063e-01,9.678020000000000511e-01
1.924129999999999938e-02,-2.001949999999999910e-02,-3.662110000000000087e-01,6.313725490196078205e-01,2.313725490196077983e-01,3.137254901960780107e-02,2.669980000000000131e-01,0.000000000000000000e+00,9.636970000000000258e-01
-2.061460000000000028e-02,-2.349849999999999856e-02,-3.955080000000000262e-01,7.764705882352941346e-01,5.529411764705882693e-01,5.176470588235294601e-01,-6.707100000000000284e-01,-3.366379999999999928e-01,6.609260000000000135e-01
-1.863100000000000173e-02,-2.337650000000000144e-02,-3.933110000000000217e-01,7.058823529411765163e-01,4.117647058823529216e-01,3.803921568627450789e-01,-5.835660000000000291e-01,-3.788719999999999866e-01,7.182669999999999888e-01
-1.672360000000000166e-02,-2.331540000000000001e-02,-3.923340000000000161e-01,6.509803921568627638e-01,3.372549019607842813e-01,3.058823529411764941e-01,-5.515710000000000335e-01,-3.680479999999999863e-01,7.485380000000000367e-01
-1.477810000000000061e-02,-2.319339999999999943e-02,-3.903809999999999780e-01,6.509803921568627638e-01,3.294117647058822929e-01,2.823529411764705843e-01,-6.946259999999999657e-01,-1.731820000000000026e-01,6.982140000000000013e-01
-9.040829999999999700e-03,-2.278140000000000026e-02,-3.833010000000000028e-01,8.078431372549019773e-01,4.156862745098038880e-01,1.764705882352941013e-01,-8.159210000000000074e-01,-9.680420000000000691e-02,5.700009999999999799e-01
-7.160190000000000304e-03,-2.259830000000000172e-02,-3.803710000000000147e-01,8.549019607843136859e-01,4.352941176470587759e-01,1.647058823529410909e-01,-8.062350000000000350e-01,-1.008320000000000050e-01,5.829389999999999850e-01
-5.321499999999999841e-03,-2.247620000000000173e-02,-3.784179999999999766e-01,8.745098039215686292e-01,4.470588235294117863e-01,1.803921568627450955e-01,-7.862130000000000507e-01,-6.819490000000000274e-02,6.141809999999999770e-01
-3.494259999999999901e-03,-2.230829999999999966e-02,-3.752440000000000220e-01,8.588235294117646523e-01,4.392156862745097978e-01,1.764705882352941013e-01,-8.270020000000000149e-01,-1.224819999999999937e-01,5.486950000000000438e-01
-1.698489999999999982e-03,-2.218629999999999908e-02,-3.732909999999999839e-01,8.509803921568627194e-01,4.392156862745097978e-01,2.078431372549018885e-01,-6.343990000000000462e-01,0.000000000000000000e+00,7.730050000000000532e-01
7.718799999999999349e-05,-2.212520000000000112e-02,-3.723139999999999783e-01,8.196078431372548767e-01,4.117647058823529216e-01,2.078431372549018885e-01,-6.376899999999999791e-01,0.000000000000000000e+00,7.702930000000000055e-01
1.838680000000000089e-03,-2.200320000000000054e-02,-3.703609999999999958e-01,8.117647058823529438e-01,4.117647058823529216e-01,2.117647058823529105e-01,-6.405020000000000158e-01,0.000000000000000000e+00,7.679570000000000007e-01
3.591539999999999837e-03,-2.194209999999999910e-02,-3.693850000000000189e-01,8.000000000000000444e-01,4.000000000000000222e-01,2.000000000000000111e-01,-4.879069999999999796e-01,0.000000000000000000e+00,8.728960000000000052e-01
5.332950000000000364e-03,-2.188110000000000055e-02,-3.684080000000000132e-01,7.725490196078431682e-01,3.725490196078430905e-01,1.725490196078431071e-01,-4.901479999999999726e-01,0.000000000000000000e+00,8.716390000000000526e-01
7.064820000000000301e-03,-2.182009999999999852e-02,-3.674319999999999808e-01,7.372549019607843590e-01,3.372549019607842813e-01,1.372549019607842979e-01,-2.702559999999999962e-01,0.000000000000000000e+00,9.627879999999999772e-01
8.811950000000000685e-03,-2.182009999999999852e-02,-3.674319999999999808e-01,7.137254901960784492e-01,3.137254901960784270e-01,1.137254901960784020e-01,-4.129399999999999737e-01,-2.060190000000000077e-01,8.871510000000000229e-01
1.052860000000000081e-02,-2.175900000000000056e-02,-3.662110000000000087e-01,7.176470588235294157e-01,3.176470588235293935e-01,1.176470588235293963e-01,-2.255520000000000025e-01,-1.122839999999999949e-01,9.677390000000000159e-01
1.227570000000000050e-02,-2.175900000000000056e-02,-3.662110000000000087e-01,6.901960784313725394e-01,2.901960784313725727e-01,9.019607843137250613e-02,-2.585779999999999745e-01,-2.589560000000000195e-01,9.306339999999999613e-01
1.397709999999999925e-02,-2.169799999999999854e-02,-3.652340000000000031e-01,6.745098039215686736e-01,2.745098039215685959e-01,8.235294117647050383e-02,-2.597479999999999789e-01,-2.597479999999999789e-01,9.300869999999999971e-01
1.571660000000000071e-02,-2.169799999999999854e-02,-3.652340000000000031e-01,6.588235294117646967e-01,2.588235294117646745e-01,6.666666666666659635e-02,2.677160000000000095e-01,0.000000000000000000e+00,9.634979999999999656e-01
1.750180000000000138e-02,-2.175900000000000056e-02,-3.662110000000000087e-01,6.313725490196078205e-01,2.313725490196077983e-01,3.137254901960780107e-02,1.775090000000000001e-01,-1.775090000000000001e-01,9.679780000000000051e-01
1.924129999999999938e-02,-2.175900000000000056e-02,-3.662110000000000087e-01,6.235294117647058876e-01,2.196078431372548989e-01,3.921568627450980338e-02,9.157440000000000024e-02,-9.157440000000000024e-02,9.915789999999999882e-01
-2.066039999999999890e-02,-2.543640000000000137e-02,-3.964840000000000031e-01,7.254901960784313486e-01,4.705882352941175850e-01,4.274509803921567874e-01,-6.055449999999999999e-01,-3.870489999999999764e-01,6.953470000000000484e-01
-1.867680000000000035e-02,-2.531430000000000138e-02,-3.945310000000000206e-01,6.823529411764706065e-01,4.000000000000000222e-01,3.647058823529411020e-01,-5.739849999999999675e-01,-4.690130000000000132e-01,6.712439999999999518e-01
-1.675420000000000034e-02,-2.525329999999999936e-02,-3.933110000000000217e-01,6.313725490196078205e-01,3.372549019607842813e-01,2.980392156862745057e-01,-6.216049999999999631e-01,-3.339099999999999846e-01,7.085979999999999501e-01
-1.481629999999999926e-02,-2.511599999999999944e-02,-3.913570000000000104e-01,6.196078431372549211e-01,3.215686274509804154e-01,2.745098039215685959e-01,-7.364640000000000075e-01,-2.110970000000000069e-01,6.426960000000000450e-01
-9.040829999999999700e-03,-2.459719999999999962e-02,-3.833010000000000028e-01,8.117647058823529438e-01,4.117647058823529216e-01,1.686274509803921129e-01,-8.153000000000000247e-01,-9.713929999999999787e-02,5.708330000000000348e-01
-7.179259999999999808e-03,-2.447509999999999963e-02,-3.813480000000000203e-01,8.352941176470588536e-01,4.078431372549018996e-01,1.411764705882352922e-01,-8.060119999999999507e-01,-1.007509999999999933e-01,5.832619999999999472e-01
-5.321499999999999841e-03,-2.427669999999999828e-02,-3.784179999999999766e-01,8.352941176470588536e-01,4.078431372549018996e-01,1.411764705882352922e-01,-7.758690000000000309e-01,-5.541920000000000179e-02,6.284549999999999859e-01
-3.501890000000000124e-03,-2.415470000000000117e-02,-3.764649999999999941e-01,8.352941176470588536e-01,4.117647058823529216e-01,1.686274509803921129e-01,-8.028290000000000148e-01,-1.765980000000000050e-01,5.694550000000000445e-01
-1.698489999999999982e-03,-2.395629999999999982e-02,-3.732909999999999839e-01,8.274509803921568096e-01,4.039215686274509887e-01,1.607843137254902077e-01,-7.312400000000000011e-01,-1.907429999999999959e-01,6.549089999999999634e-01
7.718799999999999349e-05,-2.389530000000000126e-02,-3.723139999999999783e-01,8.117647058823529438e-01,3.882352941176470118e-01,1.450980392156862864e-01,-5.888959999999999750e-01,-7.365410000000000013e-02,8.048459999999999503e-01
1.838680000000000089e-03,-2.377320000000000128e-02,-3.703609999999999958e-01,8.078431372549019773e-01,3.843137254901961009e-01,1.490196078431371973e-01,-6.193089999999999984e-01,-2.062779999999999891e-01,7.575650000000000439e-01
3.591539999999999837e-03,-2.369689999999999991e-02,-3.693850000000000189e-01,8.039215686274510109e-01,3.803921568627450789e-01,1.529411764705881915e-01,-4.669340000000000157e-01,-2.336360000000000103e-01,8.528700000000000170e-01
5.332950000000000364e-03,-2.363590000000000135e-02,-3.684080000000000132e-01,7.725490196078431682e-01,3.725490196078430905e-01,1.372549019607842979e-01,-4.700360000000000094e-01,-2.347629999999999995e-01,8.508539999999999992e-01
7.064820000000000301e-03,-2.357479999999999992e-02,-3.674319999999999808e-01,7.490196078431372584e-01,3.568627450980392246e-01,1.490196078431371973e-01,-3.421859999999999902e-01,-1.709070000000000034e-01,9.239589999999999748e-01
8.811950000000000685e-03,-2.357479999999999992e-02,-3.674319999999999808e-01,7.098039215686274828e-01,3.098039215686274050e-01,1.176470588235293963e-01,-3.319509999999999961e-01,0.000000000000000000e+00,9.432970000000000521e-01
1.052860000000000081e-02,-2.351380000000000137e-02,-3.662110000000000087e-01,7.098039215686274828e-01,3.098039215686274050e-01,1.176470588235293963e-01,-3.328189999999999760e-01,0.000000000000000000e+00,9.429910000000000236e-01
1.227570000000000050e-02,-2.351380000000000137e-02,-3.662110000000000087e-01,6.941176470588235059e-01,3.019607843137254166e-01,1.098039215686273939e-01,0.000000000000000000e+00,0.000000000000000000e+00,1.000000000000000000e+00
1.401520000000000023e-02,-2.351380000000000137e-02,-3.662110000000000087e-01,6.745098039215686736e-01,2.901960784313725727e-01,9.411764705882350035e-02,-2.586399999999999810e-01,-2.582630000000000203e-01,9.308089999999999975e-01
