X,Y,Z,R,G,B,nX,nY,nZ
-0.016037,-0.0328369,-0.281982,0.6666666666666666,0.3686274509803922,0.188235294117647,-0.335838,0.0,0.94192
-0.0147018,-0.0328369,-0.281982,0.6862745098039216,0.3568627450980392,0.1607843137254902,-0.33639,0.0,0.941723
-0.0133133,-0.0327454,-0.281006,0.7019607843137254,0.3647058823529411,0.1529411764705882,-0.576325,0.0,0.81722
-0.0119324,-0.0326233,-0.280029,0.7019607843137254,0.3490196078431372,0.1254901960784313,-0.23422,0.236239,0.943044
-0.0105972,-0.0326233,-0.280029,0.7058823529411765,0.3411764705882353,0.0941176470588235,-0.122735,0.122037,0.984908
-0.00926208,-0.0326233,-0.280029,0.7098039215686275,0.3450980392156862,0.0980392156862745,-0.339742,0.0,0.940519
-0.00790405,-0.0325012,-0.279053,0.6980392156862745,0.3333333333333333,0.0862745098039215,-0.343319,0.0,0.939219
-0.00658035,-0.0325012,-0.279053,0.7137254901960784,0.3450980392156862,0.1176470588235294,0.0,0.0,1.0
-0.00524902,-0.0325012,-0.279053,0.7098039215686275,0.3411764705882353,0.1137254901960784,0.0,0.0,1.0
-0.00392151,-0.0325012,-0.279053,0.6980392156862745,0.3411764705882353,0.1098039215686274,0.0,0.0,1.0
-0.0025959,-0.0325012,-0.279053,0.6862745098039216,0.3294117647058823,0.0980392156862745,0.0,0.0,1.0
-0.00126934,-0.0325012,-0.279053,0.6980392156862745,0.3372549019607843,0.1176470588235294,0.0,0.0,1.0
5.78165e-05,-0.0325012,-0.279053,0.6980392156862745,0.3450980392156862,0.1215686274509803,0.239659,0.120468,0.963354
0.00139046,-0.0326233,-0.280029,0.6862745098039216,0.3294117647058823,0.0901960784313725,0.438588,0.220193,0.871295
0.00272179,-0.0326233,-0.280029,0.6784313725490196,0.3215686274509804,0.0823529411764705,0.23845,0.119739,0.963745
0.00406647,-0.0327454,-0.281006,0.6784313725490196,0.3215686274509804,0.0823529411764705,0.436128,0.219474,0.872711
0.00540543,-0.0327454,-0.281006,0.6862745098039216,0.3294117647058823,0.0901960784313725,0.340036,0.0,0.940412
0.00676727,-0.0328369,-0.281982,0.6901960784313725,0.3333333333333333,0.0941176470588235,0.582206,0.0,0.813041
0.00813293,-0.032959,-0.282959,0.6862745098039216,0.3294117647058823,0.0901960784313725,0.423349,-0.106439,0.899692
0.00948334,-0.032959,-0.282959,0.6823529411764706,0.3294117647058823,0.0784313725490196,0.220606,-0.221859,0.949796
0.0108643,-0.0330811,-0.283936,0.6862745098039216,0.3372549019607843,0.0941176470588235,0.575271,0.0,0.817963
0.0122604,-0.0332031,-0.284912,0.6901960784313725,0.3529411764705882,0.1411764705882353,0.572112,0.0,0.820176
0.0387573,-0.0526123,-0.45166,0.3450980392156862,0.1490196078431372,0.0666666666666666,0.599222,0.669748,0.4386
0.0881958,-0.0552979,-0.474854,0.1058823529411764,0.0862745098039215,0.0705882352941176,-0.195621,0.714324,0.671917
0.101868,-0.0519104,-0.445557,0.1803921568627451,0.1215686274509803,0.0823529411764705,-0.905024,0.0,0.425361
0.162231,-0.0592957,-0.508789,0.2078431372549019,0.0901960784313725,0.0196078431372549,-0.03953,0.878666,0.475798
0.209961,-0.0462952,-0.397461,0.1725490196078431,0.1176470588235294,0.0862745098039215,0.0,0.0,1.0
-0.760254,-0.323242,-2.66602,0.1019607843137254,0.0901960784313725,0.0784313725490196,-0.488354,0.445959,0.750088
-0.708008,-0.32251,-2.66016,0.2039215686274509,0.1294117647058823,0.0705882352941176,0.286719,0.537598,0.792957
-0.0202026,-0.0344238,-0.283936,0.6588235294117647,0.3568627450980392,0.196078431372549,-0.566905,0.0,0.823783
-0.0187836,-0.0343018,-0.282959,0.6588235294117647,0.3411764705882353,0.1411764705882353,-0.1774,0.0,0.984139
-0.0174408,-0.0343018,-0.282959,0.7254901960784313,0.4235294117647059,0.2431372549019607,-0.33501,0.0,0.942215
-0.016037,-0.0341797,-0.281982,0.6823529411764706,0.3607843137254902,0.1803921568627451,-0.335838,0.0,0.94192
-0.0147018,-0.0341797,-0.281982,0.6901960784313725,0.3529411764705882,0.1411764705882353,-0.337505,0.0,0.941324
-0.0133133,-0.0340576,-0.281006,0.7019607843137254,0.3529411764705882,0.1176470588235294,-0.57633,0.0,0.817217
-0.0119324,-0.0339355,-0.280029,0.6980392156862745,0.3411764705882353,0.1019607843137254,-0.337216,0.0,0.941427
-0.0105972,-0.0339355,-0.280029,0.6980392156862745,0.3333333333333333,0.0862745098039215,-0.122851,0.122153,0.984879
-0.00926208,-0.0339355,-0.280029,0.7058823529411765,0.3411764705882353,0.0941176470588235,-0.23589,0.236568,0.942545
-0.00790405,-0.0338135,-0.279053,0.7176470588235294,0.3607843137254902,0.1215686274509803,-0.341029,0.0,0.940053
-0.00658035,-0.0338135,-0.279053,0.7058823529411765,0.3450980392156862,0.1254901960784313,0.0,0.0,1.0
-0.00524902,-0.0338135,-0.279053,0.7019607843137254,0.3411764705882353,0.1215686274509803,0.0,0.0,1.0
-0.00392151,-0.0338135,-0.279053,0.6980392156862745,0.3372549019607843,0.1333333333333333,0.0,0.0,1.0
-0.0025959,-0.0338135,-0.279053,0.6980392156862745,0.3372549019607843,0.1333333333333333,0.0,0.0,1.0
-0.00126934,-0.0338135,-0.279053,0.6901960784313725,0.3294117647058823,0.1176470588235294,0.0,0.0,1.0
5.78165e-05,-0.0338135,-0.279053,0.6862745098039216,0.3254901960784314,0.1058823529411764,0.0,0.0,1.0
0.00138474,-0.0338135,-0.279053,0.6901960784313725,0.3215686274509804,0.0941176470588235,0.438945,0.219738,0.871231
0.00272179,-0.0339355,-0.280029,0.7058823529411765,0.3372549019607843,0.1098039215686274,0.23877,0.119728,0.963667
0.00405502,-0.0339355,-0.280029,0.6980392156862745,0.3411764705882353,0.1019607843137254,0.436122,0.219471,0.872714
0.00540543,-0.0340576,-0.281006,0.6823529411764706,0.3294117647058823,0.0784313725490196,0.518881,0.104431,0.848444
0.00676727,-0.0341797,-0.281982,0.6901960784313725,0.3372549019607843,0.0862745098039215,0.582202,0.0,0.813044
0.00813293,-0.0343018,-0.282959,0.6901960784313725,0.3372549019607843,0.0862745098039215,0.579516,0.0,0.814961
0.00951385,-0.0344238,-0.283936,0.6901960784313725,0.3372549019607843,0.0862745098039215,0.220793,-0.219552,0.950288
0.0108643,-0.0344238,-0.283936,0.6980392156862745,0.3568627450980392,0.1294117647058823,0.419701,-0.104336,0.901646
0.0122604,-0.0345459,-0.284912,0.6941176470588235,0.3764705882352941,0.1686274509803921,0.572108,0.0,0.820179
0.0525818,-0.0557251,-0.459717,0.196078431372549,0.1019607843137254,0.0549019607843137,0.268489,0.866149,0.421544
0.0900269,-0.057312,-0.472656,0.1450980392156863,0.0862745098039215,0.0470588235294117,-0.207616,0.592942,0.77802
0.161011,-0.0612183,-0.504883,0.2313725490196078,0.1215686274509803,0.0549019607843137,-0.138852,0.834295,0.533547
-0.0202026,-0.0357971,-0.283936,0.6627450980392157,0.3372549019607843,0.1215686274509803,-0.406185,-0.200811,0.891453
-0.0187836,-0.035675,-0.282959,0.6627450980392157,0.3254901960784314,0.1137254901960784,-0.405052,-0.20025,0.892095
-0.0174408,-0.035675,-0.282959,0.6901960784313725,0.3490196078431372,0.1294117647058823,-0.33392,0.0,0.942602
-0.016037,-0.0355225,-0.281982,0.7019607843137254,0.3647058823529411,0.1529411764705882,-0.336933,0.0,0.941529
-0.0147018,-0.0355225,-0.281982,0.6901960784313725,0.3490196078431372,0.1215686274509803,-0.337505,0.0,0.941324
-0.0133133,-0.0354004,-0.281006,0.6941176470588235,0.3411764705882353,0.1176470588235294,-0.57633,0.0,0.817217
-0.0119324,-0.0352783,-0.280029,0.7411764705882353,0.392156862745098,0.1568627450980392,-0.338345,0.0,0.941022
-0.0105972,-0.0352783,-0.280029,0.7058823529411765,0.3411764705882353,0.0941176470588235,-0.338905,0.0,0.940821
-0.00923157,-0.0351562,-0.279053,0.7372549019607844,0.3803921568627451,0.1411764705882353,-0.235886,0.236564,0.942547
-0.00790405,-0.0351562,-0.279053,0.6901960784313725,0.3490196078431372,0.1215686274509803,-0.123717,0.122311,0.984751
-0.00658035,-0.0351562,-0.279053,0.6980392156862745,0.3372549019607843,0.1176470588235294,0.0,0.0,1.0
-0.00524902,-0.0351562,-0.279053,0.7058823529411765,0.3450980392156862,0.1411764705882353,0.0,0.0,1.0
-0.00392151,-0.0351562,-0.279053,0.7019607843137254,0.3607843137254902,0.1686274509803921,0.0,0.0,1.0
-0.0025959,-0.0351562,-0.279053,0.6941176470588235,0.3490196078431372,0.1686274509803921,0.0,0.0,1.0
-0.00126934,-0.0351562,-0.279053,0.6862745098039216,0.3333333333333333,0.1098039215686274,0.0,0.0,1.0
5.78165e-05,-0.0351562,-0.279053,0.6862745098039216,0.3333333333333333,0.1098039215686274,0.0,0.0,1.0
0.00138474,-0.0351562,-0.279053,0.6901960784313725,0.3294117647058823,0.1098039215686274,0.344184,0.0,0.938902
0.00272179,-0.0352783,-0.280029,0.6823529411764706,0.3254901960784314,0.0941176470588235,0.343466,0.0,0.939165
0.00405502,-0.0352783,-0.280029,0.6862745098039216,0.3176470588235294,0.0901960784313725,0.341958,0.0,0.939715
0.00540543,-0.0354004,-0.281006,0.6862745098039216,0.3176470588235294,0.0823529411764705,0.584365,0.0,0.811491
0.00676727,-0.0355225,-0.281982,0.6941176470588235,0.3254901960784314,0.0901960784313725,0.582206,0.0,0.813041
0.00813293,-0.035675,-0.282959,0.7058823529411765,0.3372549019607843,0.1019607843137254,0.579524,0.0,0.814955
0.00951385,-0.0357971,-0.283936,0.7137254901960784,0.3450980392156862,0.1098039215686274,0.337774,0.0,0.941227
0.0108643,-0.0357971,-0.283936,0.7019607843137254,0.3529411764705882,0.1098039215686274,0.333914,0.0,0.942604
0.0122604,-0.0359192,-0.284912,0.7019607843137254,0.3607843137254902,0.1333333333333333,0.572112,0.0,0.820176
0.0136642,-0.0360413,-0.285889,0.6470588235294118,0.3647058823529411,0.2509803921568627,0.614236,0.0,0.789122
0.0360413,-0.0560303,-0.44458,0.4901960784313725,0.4705882352941176,0.4549019607843137,0.647145,0.399073,0.649572
0.0522461,-0.0575562,-0.456543,0.2509803921568627,0.1490196078431372,0.0901960784313725,0.255196,0.791633,0.55515
0.0545349,-0.0576782,-0.457764,0.2588235294117647,0.1607843137254902,0.0901960784313725,0.154205,0.846241,0.509998
0.0567017,-0.0576782,-0.457764,0.2235294117647059,0.1294117647058823,0.0666666666666666,0.0,0.86124,0.508199
0.0588684,-0.0576782,-0.457764,0.1215686274509803,0.0666666666666666,0.0431372549019607,0.0,0.86124,0.508199
0.0632324,-0.0576782,-0.457764,0.1137254901960784,0.0941176470588235,0.0784313725490196,0.043428,0.883488,0.466436
0.0919189,-0.0593262,-0.470703,0.1607843137254902,0.1098039215686274,0.0666666666666666,-0.0693308,0.481568,0.873662
0.10376,-0.0560303,-0.44458,0.3529411764705882,0.2274509803921568,0.1411764705882353,-0.74441,-0.365675,0.558691
0.1604,-0.0633545,-0.50293,0.2078431372549019,0.1294117647058823,0.0901960784313725,-0.4307,0.615395,0.660141
0.178711,-0.0614624,-0.487793,0.5137254901960784,0.4784313725490196,0.4588235294117647,-0.0434743,0.922515,0.383505
-0.0202026,-0.0371399,-0.283936,0.6705882352941176,0.3294117647058823,0.1176470588235294,0.0,0.0,1.0
-0.0188599,-0.0371399,-0.283936,0.6862745098039216,0.3333333333333333,0.1098039215686274,-0.404763,-0.202382,0.891744
-0.0174408,-0.0370178,-0.282959,0.6862745098039216,0.3490196078431372,0.1215686274509803,-0.495034,-0.0990067,0.863215
-0.016037,-0.0368652,-0.281982,0.7098039215686275,0.396078431372549,0.2039215686274509,-0.335838,0.0,0.94192
-0.0147018,-0.0368652,-0.281982,0.6705882352941176,0.3568627450980392,0.1647058823529411,-0.337505,0.0,0.941324
-0.0133133,-0.0367432,-0.281006,0.6901960784313725,0.3647058823529411,0.1490196078431372,-0.576326,0.0,0.81722
-0.0119324,-0.0366211,-0.280029,0.6980392156862745,0.3490196078431372,0.1058823529411764,-0.339473,0.0,0.940616
-0.0105972,-0.0366211,-0.280029,0.6941176470588235,0.3254901960784314,0.0901960784313725,-0.340036,0.0,0.940412
-0.00923157,-0.0364685,-0.279053,0.6941176470588235,0.3294117647058823,0.0823529411764705,-0.340888,0.0,0.940104
-0.00790405,-0.0364685,-0.279053,0.7019607843137254,0.3450980392156862,0.1058823529411764,0.0,0.0,1.0
-0.00658035,-0.0364685,-0.279053,0.6980392156862745,0.3411764705882353,0.1098039215686274,0.0,0.0,1.0
-0.00524902,-0.0364685,-0.279053,0.6862745098039216,0.3333333333333333,0.1098039215686274,-0.123664,0.122258,0.984764
-0.00392151,-0.0364685,-0.279053,0.6823529411764706,0.3647058823529411,0.1647058823529411,0.0,0.359577,0.933116
-0.0025959,-0.0364685,-0.279053,0.7058823529411765,0.4156862745098039,0.2431372549019607,0.123359,0.243652,0.961985
-0.00126934,-0.0364685,-0.279053,0.6470588235294118,0.3176470588235294,0.1137254901960784,0.0,0.0,1.0
5.78165e-05,-0.0364685,-0.279053,0.6823529411764706,0.3294117647058823,0.1058823529411764,0.0,0.0,1.0
0.00138474,-0.0364685,-0.279053,0.6862745098039216,0.3333333333333333,0.1176470588235294,0.344184,0.0,0.938902
0.00272179,-0.0366211,-0.280029,0.6745098039215687,0.3215686274509804,0.0980392156862745,0.343466,0.0,0.939165
0.00405502,-0.0366211,-0.280029,0.6627450980392157,0.3019607843137254,0.0823529411764705,0.341958,0.0,0.939715
0.00540543,-0.0367432,-0.281006,0.6705882352941176,0.3019607843137254,0.0745098039215686,0.584365,0.0,0.811491
0.00676727,-0.0368652,-0.281982,0.6901960784313725,0.3215686274509804,0.0941176470588235,0.582206,0.0,0.813041
0.00813293,-0.0370178,-0.282959,0.6980392156862745,0.3411764705882353,0.1098039215686274,0.51413,0.10341,0.851455
0.00951385,-0.0371399,-0.283936,0.7058823529411765,0.3490196078431372,0.1176470588235294,0.429334,0.215887,0.876964
0.0108643,-0.0371399,-0.283936,0.7019607843137254,0.3529411764705882,0.1098039215686274,0.336112,0.0,0.941822
0.0122604,-0.037262,-0.284912,0.7019607843137254,0.3607843137254902,0.1333333333333333,0.572112,0.0,0.820176
0.0136642,-0.0374146,-0.285889,0.6627450980392157,0.3647058823529411,0.1843137254901961,0.614387,0.0,0.789005
0.0359497,-0.0580139,-0.443604,0.2862745098039215,0.2156862745098039,0.1803921568627451,0.620312,0.223639,0.751797
0.0382385,-0.0582886,-0.445557,0.2431372549019607,0.1490196078431372,0.1019607843137254,0.57551,0.286516,0.765962
0.052002,-0.0594482,-0.45459,0.2549019607843137,0.1647058823529411,0.0901960784313725,0.171735,0.696755,0.696448
0.0606689,-0.0594482,-0.45459,0.1294117647058823,0.0745098039215686,0.0509803921568627,0.0,0.814262,0.580498
-0.021637,-0.0386353,-0.284912,0.6392156862745098,0.3411764705882353,0.1607843137254902,-0.299778,-0.303185,0.904551
-0.0202026,-0.0384827,-0.283936,0.6705882352941176,0.3294117647058823,0.1098039215686274,-0.303672,-0.301966,0.903659
-0.0188599,-0.0384827,-0.283936,0.6745098039215687,0.3333333333333333,0.1137254901960784,-0.333365,0.0,0.942798
-0.0174408,-0.0383606,-0.282959,0.6901960784313725,0.3490196078431372,0.1215686274509803,-0.568979,0.0,0.822352
-0.016037,-0.038208,-0.281982,0.6862745098039216,0.3568627450980392,0.1529411764705882,-0.335838,0.0,0.94192
-0.0147018,-0.038208,-0.281982,0.7019607843137254,0.3725490196078431,0.1764705882352941,-0.337505,0.0,0.941324
-0.0133133,-0.0380859,-0.281006,0.7176470588235294,0.3803921568627451,0.1607843137254902,-0.57633,0.0,0.817217
-0.0119324,-0.0379333,-0.280029,0.7019607843137254,0.3450980392156862,0.1137254901960784,-0.338345,0.0,0.941022
-0.0105972,-0.0379333,-0.280029,0.6980392156862745,0.3294117647058823,0.1019607843137254,-0.340036,0.0,0.940412
-0.00923157,-0.0378113,-0.279053,0.7058823529411765,0.3450980392156862,0.1254901960784313,-0.340888,0.0,0.940104
-0.00790405,-0.0378113,-0.279053,0.7137254901960784,0.3607843137254902,0.1450980392156863,0.0,0.0,1.0
-0.00658035,-0.0378113,-0.279053,0.7058823529411765,0.3647058823529411,0.1529411764705882,0.0,0.0,1.0
-0.00524902,-0.0378113,-0.279053,0.7372549019607844,0.4392156862745098,0.2509803921568627,-0.342308,0.0,0.939588
-0.00391006,-0.0376892,-0.278076,0.6666666666666666,0.396078431372549,0.2235294117647059,-0.237878,0.237536,0.941802
-0.00258636,-0.0376892,-0.278076,0.6352941176470588,0.3568627450980392,0.188235294117647,0.338798,0.339531,0.877459
-0.00126934,-0.0378113,-0.279053,0.6549019607843137,0.3764705882352941,0.2078431372549019,0.240557,0.120192,0.963165
5.78165e-05,-0.0378113,-0.279053,0.6705882352941176,0.3843137254901961,0.2,0.0,0.0,1.0
0.00138474,-0.0378113,-0.279053,0.6862745098039216,0.3490196078431372,0.1372549019607843,0.344184,0.0,0.938902
0.00272179,-0.0379333,-0.280029,0.6901960784313725,0.3490196078431372,0.1294117647058823,0.343466,0.0,0.939165
0.00405502,-0.0379333,-0.280029,0.6784313725490196,0.3372549019607843,0.1176470588235294,0.343106,0.0,0.939297
0.00540543,-0.0380859,-0.281006,0.6862745098039216,0.3333333333333333,0.1176470588235294,0.584359,0.0,0.811495
0.00676727,-0.038208,-0.281982,0.7333333333333333,0.392156862745098,0.1803921568627451,0.582206,0.0,0.813041
0.00813293,-0.0383606,-0.282959,0.6862745098039216,0.3490196078431372,0.1372549019607843,0.338345,0.0,0.941022
0.00948334,-0.0383606,-0.282959,0.6941176470588235,0.3450980392156862,0.1098039215686274,0.430022,0.215011,0.876842
0.0108643,-0.0384827,-0.283936,0.6980392156862745,0.3490196078431372,0.1137254901960784,0.510493,0.101754,0.85384
0.0122604,-0.0386353,-0.284912,0.6941176470588235,0.3568627450980392,0.1294117647058823,0.572108,0.0,0.820179
0.0136642,-0.0387573,-0.285889,0.6705882352941176,0.388235294117647,0.2313725490196078,0.614084,0.0,0.78924
0.0359497,-0.0601196,-0.443604,0.2352941176470588,0.1333333333333333,0.0901960784313725,0.549406,0.0,0.835555
0.038147,-0.0602722,-0.44458,0.2470588235294117,0.1450980392156863,0.1019607843137254,0.546815,0.183737,0.816844
0.0517578,-0.0613403,-0.452637,0.2941176470588235,0.188235294117647,0.1019607843137254,0.172725,0.697481,0.695476
0.0560913,-0.0613403,-0.452637,0.2549019607843137,0.1450980392156863,0.0784313725490196,0.0,0.71824,0.695795
0.112732,-0.0594482,-0.438477,0.1725490196078431,0.0901960784313725,0.0235294117647058,-0.637706,-0.632685,0.439364
0.114075,-0.0590515,-0.435547,0.1764705882352941,0.1176470588235294,0.0705882352941176,-0.590617,-0.536208,0.603036
0.12384,-0.0550842,-0.406494,0.1490196078431372,0.1137254901960784,0.0862745098039215,0.283294,-0.138301,0.949008
-2.01562,-0.401611,-2.86328,0.2470588235294117,0.2352941176470588,0.2235294117647059,0.242496,0.96582,0.0915864
-0.021637,-0.039978,-0.284912,0.6431372549019608,0.3294117647058823,0.1372549019607843,0.0,0.0,1.0
-0.0202789,-0.039978,-0.284912,0.6705882352941176,0.3294117647058823,0.1176470588235294,-0.402075,-0.199908,0.893517
-0.0188599,-0.039856,-0.283936,0.6784313725490196,0.3254901960784314,0.1098039215686274,-0.492367,-0.0975863,0.8649
-0.0174408,-0.0397034,-0.282959,0.6862745098039216,0.3333333333333333,0.1176470588235294,-0.568971,0.0,0.822358
-0.016037,-0.0395508,-0.281982,0.6980392156862745,0.3568627450980392,0.1372549019607843,-0.335838,0.0,0.94192
-0.0147018,-0.0395508,-0.281982,0.6980392156862745,0.3568627450980392,0.1372549019607843,-0.337505,0.0,0.941324
-0.0133133,-0.0394287,-0.281006,0.7137254901960784,0.3725490196078431,0.1529411764705882,-0.57633,0.0,0.817217
-0.0119324,-0.0392761,-0.280029,0.7019607843137254,0.3529411764705882,0.1176470588235294,-0.338345,0.0,0.941022
-0.0105972,-0.0392761,-0.280029,0.6980392156862745,0.3411764705882353,0.1019607843137254,-0.340036,0.0,0.940412
-0.00923157,-0.0391235,-0.279053,0.7058823529411765,0.3372549019607843,0.1098039215686274,-0.340888,0.0,0.940104
-0.00790405,-0.0391235,-0.279053,0.6980392156862745,0.3450980392156862,0.1215686274509803,0.0,0.0,1.0
-0.00658035,-0.0391235,-0.279053,0.7019607843137254,0.3607843137254902,0.1411764705882353,0.0,0.0,1.0
-0.00524902,-0.0391235,-0.279053,0.6745098039215687,0.3490196078431372,0.1333333333333333,-0.343466,0.0,0.939165
-0.00391006,-0.0390015,-0.278076,0.6745098039215687,0.3647058823529411,0.1607843137254902,-0.344334,0.0,0.938847
-0.00258636,-0.0390015,-0.278076,0.6509803921568628,0.3529411764705882,0.1568627450980392,0.348031,0.0,0.937483
-0.00126934,-0.0391235,-0.279053,0.6588235294117647,0.3568627450980392,0.1686274509803921,0.345279,0.0,0.9385
5.78165e-05,-0.0391235,-0.279053,0.6588235294117647,0.3372549019607843,0.1490196078431372,0.0,0.0,1.0
0.00138474,-0.0391235,-0.279053,0.6784313725490196,0.3254901960784314,0.1098039215686274,0.345342,0.0,0.938477
0.00272179,-0.0392761,-0.280029,0.6862745098039216,0.3333333333333333,0.1176470588235294,0.342315,0.0,0.939585
0.00405502,-0.0392761,-0.280029,0.6823529411764706,0.3294117647058823,0.1137254901960784,0.341958,0.0,0.939715
0.00540543,-0.0394287,-0.281006,0.6745098039215687,0.3333333333333333,0.1137254901960784,0.584365,0.0,0.811491
0.00676727,-0.0395508,-0.281982,0.7490196078431373,0.4196078431372549,0.2235294117647059,0.582206,0.0,0.813041
0.00813293,-0.0397034,-0.282959,0.6745098039215687,0.3490196078431372,0.1333333333333333,0.338345,0.0,0.941022
0.00948334,-0.0397034,-0.282959,0.6862745098039216,0.3294117647058823,0.0901960784313725,0.33667,0.0,0.941623
0.0108643,-0.039856,-0.283936,0.6901960784313725,0.3333333333333333,0.0941176470588235,0.575263,0.0,0.817969
0.0122604,-0.039978,-0.284912,0.6823529411764706,0.3490196078431372,0.1098039215686274,0.572116,0.0,0.820173
0.0136642,-0.0401306,-0.285889,0.6431372549019608,0.3607843137254902,0.2039215686274509,0.540112,0.123695,0.832454
0.0359497,-0.0622253,-0.443604,0.2274509803921568,0.1450980392156863,0.0862745098039215,0.463724,0.135093,0.87562
0.038147,-0.0623779,-0.44458,0.2509803921568627,0.1568627450980392,0.1019607843137254,0.406159,0.207023,0.890043
0.0558167,-0.0632324,-0.450684,0.3019607843137254,0.1686274509803921,0.0901960784313725,0.0,0.723856,0.689952
0.0622559,-0.0632324,-0.450684,0.1254901960784313,0.0549019607843137,0.0196078431372549,0.237576,0.651638,0.720365
0.118042,-0.0599976,-0.42749,0.2039215686274509,0.1294117647058823,0.0705882352941176,-0.934897,-0.345366,0.0817939
0.167114,-0.0684204,-0.487793,0.2235294117647059,0.1607843137254902,0.1333333333333333,-0.624659,0.640676,0.446471
0.168823,-0.0681152,-0.48584,0.1764705882352941,0.1137254901960784,0.0862745098039215,-0.636138,0.630508,0.444734
0.17041,-0.0678711,-0.483887,0.2627450980392157,0.188235294117647,0.1294117647058823,-0.648333,0.627945,0.430523
0.182251,-0.0671387,-0.47876,0.3294117647058823,0.2156862745098039,0.1254901960784313,0.118025,0.593315,0.796271
-0.021637,-0.0413513,-0.284912,0.6509803921568628,0.3215686274509804,0.1254901960784313,0.0,0.0,1.0
-0.0202789,-0.0413513,-0.284912,0.6745098039215687,0.3333333333333333,0.1137254901960784,-0.330653,0.0,0.943752
-0.0188599,-0.0411987,-0.283936,0.6862745098039216,0.3333333333333333,0.1098039215686274,-0.566905,0.0,0.823783
-0.0174408,-0.0410461,-0.282959,0.6823529411764706,0.3294117647058823,0.1058823529411764,-0.568979,0.0,0.822352
-0.016037,-0.0408936,-0.281982,0.6980392156862745,0.3450980392156862,0.1215686274509803,-0.335838,0.0,0.94192
-0.0147018,-0.0408936,-0.281982,0.6980392156862745,0.3450980392156862,0.1215686274509803,-0.33639,0.0,0.941723
-0.0133133,-0.0407715,-0.281006,0.7058823529411765,0.3568627450980392,0.1215686274509803,-0.576325,0.0,0.81722
-0.0119324,-0.0406189,-0.280029,0.6941176470588235,0.3450980392156862,0.1098039215686274,-0.339473,0.0,0.940616
-0.0105972,-0.0406189,-0.280029,0.6862745098039216,0.3294117647058823,0.0901960784313725,-0.338896,0.0,0.940824
-0.00923157,-0.0404663,-0.279053,0.7058823529411765,0.3372549019607843,0.1019607843137254,-0.342025,0.0,0.939691
-0.00790405,-0.0404663,-0.279053,0.7019607843137254,0.3450980392156862,0.1058823529411764,0.0,0.0,1.0
-0.00658035,-0.0404663,-0.279053,0.6941176470588235,0.3450980392156862,0.1098039215686274,0.0,0.0,1.0
-0.00524902,-0.0404663,-0.279053,0.6862745098039216,0.3333333333333333,0.1098039215686274,-0.231428,-0.115714,0.965946
-0.00391006,-0.0403137,-0.278076,0.6862745098039216,0.3333333333333333,0.1176470588235294,-0.312176,-0.312926,0.897008
-0.00258636,-0.0403137,-0.278076,0.6745098039215687,0.3333333333333333,0.1137254901960784,0.22463,-0.226834,0.947675
-0.00126934,-0.0404663,-0.279053,0.6666666666666666,0.3254901960784314,0.1137254901960784,0.346452,0.0,0.938068
5.78165e-05,-0.0404663,-0.279053,0.6745098039215687,0.3333333333333333,0.1137254901960784,0.0,0.0,1.0
0.00138474,-0.0404663,-0.279053,0.6705882352941176,0.3176470588235294,0.0941176470588235,0.343025,0.0,0.939326
0.00272179,-0.0406189,-0.280029,0.6745098039215687,0.3176470588235294,0.0862745098039215,0.344624,0.0,0.938741
0.00405502,-0.0406189,-0.280029,0.6784313725490196,0.3098039215686274,0.0745098039215686,0.340807,0.0,0.940133
0.00540543,-0.0407715,-0.281006,0.6784313725490196,0.3098039215686274,0.0745098039215686,0.584365,0.0,0.811491
0.00676727,-0.0408936,-0.281982,0.6823529411764706,0.3137254901960784,0.0784313725490196,0.582206,0.0,0.813041
0.00813293,-0.0410461,-0.282959,0.6941176470588235,0.3254901960784314,0.0901960784313725,0.338345,0.0,0.941022
0.00948334,-0.0410461,-0.282959,0.6862745098039216,0.3333333333333333,0.0823529411764705,0.33667,0.0,0.941623
0.0108643,-0.0411987,-0.283936,0.6862745098039216,0.3294117647058823,0.0901960784313725,0.575271,0.0,0.817963
0.0122604,-0.0413513,-0.284912,0.6784313725490196,0.3411764705882353,0.1019607843137254,0.572108,0.0,0.820179
0.0136642,-0.0414734,-0.285889,0.6352941176470588,0.3450980392156862,0.1725490196078431,0.332548,0.0,0.943086
0.0358887,-0.064209,-0.442627,0.2431372549019607,0.1490196078431372,0.0941176470588235,0.394898,0.396811,0.828611
0.0380859,-0.0643311,-0.443604,0.2784313725490196,0.1843137254901961,0.1294117647058823,0.328924,0.467418,0.820566
0.0490723,-0.0649414,-0.44751,0.3647058823529411,0.2549019607843137,0.188235294117647,0.290001,0.731577,0.617004
0.0619812,-0.0650635,-0.44873,0.1333333333333333,0.0549019607843137,0.0235294117647058,0.448992,0.570723,0.687519
0.126099,-0.0591125,-0.407471,0.196078431372549,0.1372549019607843,0.0901960784313725,-0.166322,-0.166322,0.971943
0.173218,-0.069458,-0.47876,0.2,0.1411764705882353,0.1019607843137254,-0.458898,0.423599,0.78101
0.208618,-0.0698853,-0.481689,0.3215686274509804,0.2352941176470588,0.196078431372549,-0.148021,0.296043,0.943636
0.175537,-0.0551758,-0.380371,0.2588235294117647,0.2156862745098039,0.196078431372549,-0.374295,0.532894,0.758899
-0.118225,-0.0689697,-0.460693,0.5529411764705883,0.4784313725490196,0.4117647058823529,0.468001,0.761565,0.448324
-0.021637,-0.0426941,-0.284912,0.6666666666666666,0.3254901960784314,0.1254901960784313,0.0,0.0,1.0
-0.0202789,-0.0426941,-0.284912,0.6784313725490196,0.3294117647058823,0.0941176470588235,-0.331735,0.0,0.943372
-0.0188599,-0.0425415,-0.283936,0.7019607843137254,0.3529411764705882,0.1176470588235294,-0.566905,0.0,0.823783
-0.0174408,-0.0423889,-0.282959,0.6941176470588235,0.3450980392156862,0.1098039215686274,-0.568979,0.0,0.822352
-0.016037,-0.0422363,-0.281982,0.6980392156862745,0.3490196078431372,0.1137254901960784,-0.335838,0.0,0.94192
-0.0147018,-0.0422363,-0.281982,0.7019607843137254,0.3529411764705882,0.1176470588235294,-0.337505,0.0,0.941324
-0.0133133,-0.0420837,-0.281006,0.7019607843137254,0.3529411764705882,0.1098039215686274,-0.57633,0.0,0.817217
-0.0119324,-0.0419312,-0.280029,0.6901960784313725,0.3372549019607843,0.0862745098039215,-0.337216,0.0,0.941427
-0.0105972,-0.0419312,-0.280029,0.6862745098039216,0.3215686274509804,0.0745098039215686,-0.341174,0.0,0.94
-0.00923157,-0.0417786,-0.279053,0.7019607843137254,0.3490196078431372,0.0980392156862745,-0.339749,0.0,0.940516
-0.00790405,-0.0417786,-0.279053,0.6901960784313725,0.3333333333333333,0.0941176470588235,0.0,0.0,1.0
-0.00658035,-0.0417786,-0.279053,0.6901960784313725,0.3294117647058823,0.1098039215686274,0.0,0.0,1.0
-0.00524902,-0.0417786,-0.279053,0.6745098039215687,0.3137254901960784,0.0941176470588235,0.0,0.0,1.0
-0.00392151,-0.0417786,-0.279053,0.6705882352941176,0.3176470588235294,0.1019607843137254,-0.112809,-0.228078,0.967086
-0.0025959,-0.0417786,-0.279053,0.6784313725490196,0.3254901960784314,0.1019607843137254,0.0,-0.32842,0.944532
-0.00126934,-0.0417786,-0.279053,0.6745098039215687,0.3215686274509804,0.0980392156862745,0.117443,-0.118723,0.985957
5.78165e-05,-0.0417786,-0.279053,0.6784313725490196,0.3215686274509804,0.0901960784313725,0.0,0.0,1.0
0.00138474,-0.0417786,-0.279053,0.6745098039215687,0.3176470588235294,0.0862745098039215,0.345342,0.0,0.938477
0.00272179,-0.0419312,-0.280029,0.6862745098039216,0.3058823529411765,0.0823529411764705,0.342306,0.0,0.939588
0.00405502,-0.0419312,-0.280029,0.6862745098039216,0.3098039215686274,0.0666666666666666,0.343106,0.0,0.939297
0.00540543,-0.0420837,-0.281006,0.6862745098039216,0.3098039215686274,0.0666666666666666,0.584359,0.0,0.811496
0.00676727,-0.0422363,-0.281982,0.6666666666666666,0.3019607843137254,0.0549019607843137,0.582204,0.0,0.813043
0.00813293,-0.0423889,-0.282959,0.6862745098039216,0.3333333333333333,0.0823529411764705,0.338345,0.0,0.941022
0.00948334,-0.0423889,-0.282959,0.6823529411764706,0.3294117647058823,0.0784313725490196,0.33667,0.0,0.941623
0.0108643,-0.0425415,-0.283936,0.7215686274509804,0.3686274509803922,0.1450980392156863,0.575271,0.0,0.817963
0.0122604,-0.0426941,-0.284912,0.6705882352941176,0.3333333333333333,0.0941176470588235,0.572108,0.0,0.820178
0.0136642,-0.0428467,-0.285889,0.6431372549019608,0.3450980392156862,0.1490196078431372,0.331463,0.0,0.943468
0.0357971,-0.0661621,-0.44165,0.2549019607843137,0.1607843137254902,0.1058823529411764,0.212575,0.427214,0.878806
0.0488586,-0.0667725,-0.445557,0.3333333333333333,0.2039215686274509,0.1372549019607843,0.202336,0.826907,0.524677
0.0532227,-0.0668945,-0.446533,0.3686274509803922,0.2431372549019607,0.1490196078431372,0.086566,0.88121,0.464731
0.0643921,-0.0675049,-0.450684,0.1607843137254902,0.0862745098039215,0.0352941176470588,0.757867,0.275157,0.591545
0.0698853,-0.0687256,-0.45874,0.1607843137254902,0.1019607843137254,0.0549019607843137,0.199362,-0.199362,0.959432
0.0744629,-0.0688477,-0.459717,0.1647058823529411,0.1058823529411764,0.0588235294117647,-0.116207,0.225958,0.967181
0.0765991,-0.0688477,-0.459717,0.1843137254901961,0.1176470588235294,0.0627450980392156,0.0,0.436274,0.899814
0.186401,-0.0715332,-0.477783,0.2117647058823529,0.1568627450980392,0.1254901960784313,0.0,0.425797,0.904819
0.188721,-0.0715332,-0.477783,0.2274509803921568,0.1725490196078431,0.1490196078431372,0.133033,0.402695,0.905615
0.191406,-0.0717163,-0.47876,0.2196078431372549,0.1568627450980392,0.1294117647058823,0.33786,0.346992,0.874898
0.161865,-0.0578918,-0.386475,0.188235294117647,0.1450980392156863,0.1176470588235294,-0.588172,0.0,0.808736
0.164673,-0.0575867,-0.384277,0.1647058823529411,0.1450980392156863,0.1372549019607843,-0.60745,0.0,0.794358
0.166016,-0.0574341,-0.383301,0.1647058823529411,0.1529411764705882,0.1411764705882353,-0.19151,0.0,0.981491
-0.0230713,-0.04422,-0.285889,0.6470588235294118,0.3294117647058823,0.1294117647058823,-0.562791,0.0,0.826599
-0.021637,-0.0440369,-0.284912,0.6666666666666666,0.3294117647058823,0.1098039215686274,-0.175495,0.0,0.98448
-0.0202789,-0.0440369,-0.284912,0.6784313725490196,0.3372549019607843,0.1098039215686274,-0.332816,0.0,0.942992
-0.0188599,-0.0438843,-0.283936,0.6588235294117647,0.3215686274509804,0.0823529411764705,-0.566905,0.0,0.823783
-0.0174408,-0.0437317,-0.282959,0.6901960784313725,0.3529411764705882,0.1137254901960784,-0.568979,0.0,0.822352
-0.016037,-0.0435791,-0.281982,0.7019607843137254,0.3450980392156862,0.1137254901960784,-0.335838,0.0,0.94192
-0.0147018,-0.0435791,-0.281982,0.7058823529411765,0.3490196078431372,0.1098039215686274,-0.337505,0.0,0.941324
-0.0133133,-0.0434265,-0.281006,0.7058823529411765,0.3411764705882353,0.0941176470588235,-0.57633,0.0,0.817217
-0.0119324,-0.0432739,-0.280029,0.6941176470588235,0.3294117647058823,0.0823529411764705,-0.338345,0.0,0.941022
-0.0105972,-0.0432739,-0.280029,0.6941176470588235,0.3294117647058823,0.0823529411764705,-0.338905,0.0,0.940821
-0.00923157,-0.0431213,-0.279053,0.6901960784313725,0.3254901960784314,0.0784313725490196,-0.342025,0.0,0.939691
-0.00790405,-0.0431213,-0.279053,0.6823529411764706,0.3254901960784314,0.0862745098039215,0.0,0.0,1.0
-0.00658035,-0.0431213,-0.279053,0.7058823529411765,0.3450980392156862,0.1254901960784313,0.0,0.0,1.0
-0.00524902,-0.0431213,-0.279053,0.6941176470588235,0.3411764705882353,0.1333333333333333,-0.121354,0.122765,0.984988
-0.00392151,-0.0431213,-0.279053,0.6745098039215687,0.3215686274509804,0.1137254901960784,0.121469,0.245585,0.961734
-0.0025959,-0.0431213,-0.279053,0.6784313725490196,0.3254901960784314,0.1098039215686274,0.0,0.0,1.0
-0.00126934,-0.0431213,-0.279053,0.6823529411764706,0.3294117647058823,0.1058823529411764,0.0,0.0,1.0
5.78165e-05,-0.0431213,-0.279053,0.6666666666666666,0.3176470588235294,0.0823529411764705,0.0,0.0,1.0
0.00138474,-0.0431213,-0.279053,0.6666666666666666,0.2980392156862745,0.0705882352941176,0.344184,0.0,0.938902
0.00272179,-0.0432739,-0.280029,0.6784313725490196,0.3098039215686274,0.0745098039215686,0.42874,-0.106424,0.897138
0.00405502,-0.0432739,-0.280029,0.6705882352941176,0.3058823529411765,0.0588235294117647,0.222292,-0.221186,0.949559
0.00540543,-0.0434265,-0.281006,0.6784313725490196,0.3137254901960784,0.0666666666666666,0.584365,0.0,0.811491
0.00676727,-0.0435791,-0.281982,0.6823529411764706,0.3176470588235294,0.0705882352941176,0.582206,0.0,0.813041
0.00813293,-0.0437317,-0.282959,0.6862745098039216,0.3333333333333333,0.0823529411764705,0.420829,-0.105805,0.900949
0.00948334,-0.0437317,-0.282959,0.6627450980392157,0.3098039215686274,0.0588235294117647,0.219362,-0.21813,0.950947
0.0108643,-0.0438843,-0.283936,0.6862745098039216,0.3176470588235294,0.0823529411764705,0.575263,0.0,0.817969
0.0122604,-0.0440369,-0.284912,0.6862745098039216,0.3294117647058823,0.0901960784313725,0.572112,0.0,0.820176
0.0136642,-0.04422,-0.285889,0.6470588235294118,0.3450980392156862,0.1568627450980392,0.332548,0.0,0.943086
0.0292358,-0.067627,-0.4375,0.6745098039215687,0.3725490196078431,0.1843137254901961,0.333061,0.68757,0.645227
0.0357056,-0.0681152,-0.440674,0.2901960784313726,0.1764705882352941,0.1215686274509803,0.130337,0.679777,0.721745
0.0484009,-0.0682373,-0.44165,0.3372549019607843,0.2117647058823529,0.1254901960784313,0.162048,0.914097,0.371709
0.0612793,-0.0685425,-0.443604,0.3058823529411765,0.1450980392156863,0.0705882352941176,0.0,0.871576,0.490261
0.0700684,-0.0710449,-0.459717,0.2784313725490196,0.188235294117647,0.1137254901960784,0.0,-0.388057,0.921635
0.056366,-0.0321045,-0.207764,0.2352941176470588,0.1411764705882353,0.0784313725490196,0.0,0.0,1.0
0.0603333,-0.0321045,-0.207764,0.1686274509803921,0.1490196078431372,0.1333333333333333,0.0,0.0,1.0
0.144653,-0.0681152,-0.440674,0.1686274509803921,0.1490196078431372,0.1333333333333333,-0.205724,0.690542,0.693419
-0.0230713,-0.0455627,-0.285889,0.6549019607843137,0.3607843137254902,0.1529411764705882,-0.562791,0.0,0.826599
-0.021637,-0.0454102,-0.284912,0.6823529411764706,0.3686274509803922,0.1764705882352941,-0.330121,0.0,0.943939
-0.0202789,-0.0454102,-0.284912,0.6666666666666666,0.3294117647058823,0.1019607843137254,-0.330653,0.0,0.943752
-0.0188599,-0.0452576,-0.283936,0.6862745098039216,0.3294117647058823,0.0901960784313725,-0.566905,0.0,0.823783
-0.0174408,-0.0450745,-0.282959,0.7019607843137254,0.3490196078431372,0.0980392156862745,-0.568971,0.0,0.822358
-0.016037,-0.0449219,-0.281982,0.7058823529411765,0.3529411764705882,0.1019607843137254,-0.431078,0.107157,0.895929
-0.0147018,-0.0449219,-0.281982,0.7058823529411765,0.3490196078431372,0.1098039215686274,-0.23573,0.234391,0.943129
-0.0133133,-0.0447693,-0.281006,0.6901960784313725,0.3372549019607843,0.0862745098039215,-0.576326,0.0,0.81722
-0.0119324,-0.0446167,-0.280029,0.6980392156862745,0.3450980392156862,0.0941176470588235,-0.339473,0.0,0.940616
-0.0105972,-0.0446167,-0.280029,0.6901960784313725,0.3254901960784314,0.0784313725490196,-0.340036,0.0,0.940412
-0.00923157,-0.0444336,-0.279053,0.6980392156862745,0.3333333333333333,0.0862745098039215,-0.340888,0.0,0.940104
-0.00790405,-0.0444336,-0.279053,0.7215686274509804,0.3725490196078431,0.1294117647058823,0.0,0.0,1.0
-0.00658035,-0.0444336,-0.279053,0.6862745098039216,0.388235294117647,0.1803921568627451,0.0,0.0,1.0
-0.00524902,-0.0444336,-0.279053,0.6588235294117647,0.3607843137254902,0.1529411764705882,-0.344623,0.0,0.938741
-0.00391006,-0.044281,-0.278076,0.6627450980392157,0.3647058823529411,0.1568627450980392,0.0,0.363384,0.931639
-0.0025959,-0.0444336,-0.279053,0.6705882352941176,0.3607843137254902,0.1568627450980392,0.344304,0.342415,0.874189
-0.00126934,-0.0444336,-0.279053,0.6784313725490196,0.3686274509803922,0.1647058823529411,0.0,0.0,1.0
5.78165e-05,-0.0444336,-0.279053,0.6745098039215687,0.3647058823529411,0.1529411764705882,0.0,0.0,1.0
0.00138474,-0.0444336,-0.279053,0.6666666666666666,0.3254901960784314,0.1058823529411764,0.344184,0.0,0.938902
0.00272179,-0.0446167,-0.280029,0.6705882352941176,0.3215686274509804,0.0862745098039215,0.588714,0.0,0.808341
0.00406647,-0.0447693,-0.281006,0.6784313725490196,0.3215686274509804,0.0901960784313725,0.222292,-0.221186,0.949559
0.00540543,-0.0447693,-0.281006,0.6745098039215687,0.3137254901960784,0.0941176470588235,0.424858,-0.105913,0.899043
0.00676727,-0.0449219,-0.281982,0.6862745098039216,0.3254901960784314,0.1058823529411764,0.582204,0.0,0.813043
0.00813293,-0.0450745,-0.282959,0.6901960784313725,0.3333333333333333,0.1019607843137254,0.579524,0.0,0.814955
0.00951385,-0.0452576,-0.283936,0.6784313725490196,0.3215686274509804,0.0823529411764705,0.303207,-0.30493,0.90282
0.0108643,-0.0452576,-0.283936,0.6823529411764706,0.3254901960784314,0.0862745098039215,0.305499,-0.303219,0.902623
0.0122604,-0.0454102,-0.284912,0.6784313725490196,0.3294117647058823,0.0862745098039215,0.572112,0.0,0.820176
0.0136642,-0.0455627,-0.285889,0.6705882352941176,0.4078431372549019,0.2431372549019607,0.332548,0.0,0.943086
0.0290985,-0.069397,-0.435547,0.6705882352941176,0.392156862745098,0.2235294117647059,0.337611,0.688726,0.641619
0.0333862,-0.0697021,-0.4375,0.2980392156862745,0.1843137254901961,0.1294117647058823,0.295025,0.738768,0.605956
0.035553,-0.0698853,-0.438477,0.3372549019607843,0.2352941176470588,0.1764705882352941,0.162363,0.819821,0.54912
0.0501709,-0.0698853,-0.438477,0.3686274509803922,0.2470588235294117,0.1411764705882353,0.147534,0.938279,0.312835
0.0522461,-0.0698853,-0.438477,0.4313725490196078,0.2980392156862745,0.2039215686274509,0.0,0.942067,0.335425
0.0608826,-0.0701904,-0.440674,0.392156862745098,0.2156862745098039,0.1176470588235294,0.167505,0.903768,0.393885
0.056366,-0.0330811,-0.207764,0.2,0.1058823529411764,0.0588235294117647,0.0,0.0,1.0
0.175171,-0.0604553,-0.379395,0.2,0.1333333333333333,0.0784313725490196,-0.588172,0.0,0.808736
-0.0690918,-0.0681763,-0.415527,0.5607843137254902,0.4784313725490196,0.4117647058823529,-0.447127,-0.4611,0.766462
-0.0230713,-0.046936,-0.285889,0.6509803921568628,0.3411764705882353,0.1372549019607843,-0.562791,0.0,0.826599
-0.021637,-0.0467529,-0.284912,0.7372549019607844,0.4549019607843137,0.2980392156862745,-0.330121,0.0,0.943939
-0.0202789,-0.0467529,-0.284912,0.6627450980392157,0.3490196078431372,0.1568627450980392,-0.331735,0.0,0.943372
-0.0188599,-0.0466003,-0.283936,0.6823529411764706,0.3333333333333333,0.0980392156862745,-0.566905,0.0,0.823783
-0.0174408,-0.0464478,-0.282959,0.6823529411764706,0.3254901960784314,0.0941176470588235,-0.568979,0.0,0.822352
-0.016037,-0.0462646,-0.281982,0.6980392156862745,0.3411764705882353,0.1019607843137254,-0.573154,0.0,0.819448
-0.0146484,-0.0461121,-0.281006,0.6980392156862745,0.3411764705882353,0.1019607843137254,-0.23573,0.234391,0.943129
-0.0133133,-0.0461121,-0.281006,0.7058823529411765,0.3411764705882353,0.0941176470588235,-0.434022,0.107889,0.894419
-0.0119324,-0.045929,-0.280029,0.6941176470588235,0.3294117647058823,0.0823529411764705,-0.338345,0.0,0.941022
-0.0105972,-0.045929,-0.280029,0.7058823529411765,0.3372549019607843,0.1019607843137254,-0.341174,0.0,0.94
-0.00923157,-0.0457764,-0.279053,0.6823529411764706,0.3254901960784314,0.0862745098039215,-0.339757,0.0,0.940513
-0.00790405,-0.0457764,-0.279053,0.6823529411764706,0.3254901960784314,0.0941176470588235,0.0,0.0,1.0
-0.00658035,-0.0457764,-0.279053,0.6705882352941176,0.3294117647058823,0.1098039215686274,-0.123317,0.122266,0.984807
-0.00524902,-0.0457764,-0.279053,0.6588235294117647,0.3333333333333333,0.1176470588235294,-0.239017,0.239017,0.941139
-0.00391006,-0.0456238,-0.278076,0.6588235294117647,0.3450980392156862,0.1254901960784313,-0.345489,0.0,0.938423
-0.00258636,-0.0456238,-0.278076,0.6470588235294118,0.3333333333333333,0.1137254901960784,0.446044,0.221349,0.867208
-0.00126934,-0.0457764,-0.279053,0.6470588235294118,0.3098039215686274,0.0980392156862745,0.24142,0.119253,0.963065
5.78165e-05,-0.0457764,-0.279053,0.6588235294117647,0.3176470588235294,0.0980392156862745,0.118601,-0.117201,0.986001
0.00138474,-0.0457764,-0.279053,0.6862745098039216,0.3294117647058823,0.0980392156862745,0.223675,-0.221401,0.949184
0.00272179,-0.045929,-0.280029,0.6705882352941176,0.3137254901960784,0.0745098039215686,0.588718,0.0,0.808338
0.00406647,-0.0461121,-0.281006,0.6862745098039216,0.3058823529411765,0.0745098039215686,0.425981,-0.1068,0.898406
0.00540543,-0.0461121,-0.281006,0.6941176470588235,0.3254901960784314,0.0980392156862745,0.221178,-0.220864,0.949894
0.00676727,-0.0462646,-0.281982,0.6784313725490196,0.3098039215686274,0.0823529411764705,0.582206,0.0,0.813041
0.00813293,-0.0464478,-0.282959,0.6823529411764706,0.3137254901960784,0.0784313725490196,0.579524,0.0,0.814955
0.00951385,-0.0466003,-0.283936,0.6823529411764706,0.3137254901960784,0.0784313725490196,0.57633,0.0,0.817217
0.0109024,-0.0467529,-0.284912,0.6862745098039216,0.3176470588235294,0.0823529411764705,0.218421,-0.217807,0.951237
0.0122604,-0.0467529,-0.284912,0.6980392156862745,0.4,0.192156862745098,0.415592,-0.104485,0.90353
0.0136642,-0.046936,-0.285889,0.6588235294117647,0.392156862745098,0.2,0.332548,0.0,0.943086
0.0150299,-0.046936,-0.285889,0.392156862745098,0.192156862745098,0.0941176470588235,0.0,0.0,1.0
0.0289612,-0.071106,-0.433594,0.6470588235294118,0.3803921568627451,0.188235294117647,0.391422,0.520937,0.75856
0.0310974,-0.0712891,-0.43457,0.3372549019607843,0.1372549019607843,0.0392156862745098,0.315095,0.626947,0.712497
0.0332336,-0.0714722,-0.435547,0.3490196078431372,0.2352941176470588,0.1529411764705882,0.18587,0.726502,0.661548
0.0353088,-0.0714722,-0.435547,0.388235294117647,0.2745098039215686,0.2196078431372549,0.0590017,0.80158,0.594969
0.0454712,-0.071106,-0.433594,0.3686274509803922,0.2509803921568627,0.188235294117647,0.0,0.944288,0.329119
0.0475159,-0.071106,-0.433594,0.3607843137254902,0.2352941176470588,0.1490196078431372,0.0,0.944296,0.329097
0.0495911,-0.071106,-0.433594,0.3843137254901961,0.2588235294117647,0.1725490196078431,0.107223,0.951315,0.288969
0.0517578,-0.0712891,-0.43457,0.4235294117647059,0.2901960784313726,0.2039215686274509,0.114172,0.949602,0.291927
0.0603333,-0.0715942,-0.436523,0.4235294117647059,0.2274509803921568,0.1019607843137254,0.244397,0.870776,0.426638
0.056366,-0.0340881,-0.207764,0.2039215686274509,0.1254901960784313,0.0862745098039215,0.0,0.0,1.0
0.0603333,-0.0340881,-0.207764,0.188235294117647,0.1529411764705882,0.1254901960784313,0.0,0.0,1.0
0.143433,-0.0715942,-0.436523,0.2039215686274509,0.1686274509803921,0.1490196078431372,0.0,0.744835,0.667248
0.177734,-0.0619202,-0.377441,0.1764705882352941,0.1176470588235294,0.0705882352941176,-0.606095,0.0,0.795392
-0.069397,-0.0704956,-0.41748,0.5607843137254902,0.4862745098039215,0.4274509803921568,-0.61068,-0.207757,0.764138
-0.0230713,-0.0482788,-0.285889,0.6549019607843137,0.3372549019607843,0.1294117647058823,-0.398015,-0.199007,0.895534
-0.021637,-0.0481262,-0.284912,0.6705882352941176,0.3725490196078431,0.1843137254901961,-0.398015,-0.199007,0.895534
-0.0202789,-0.0481262,-0.284912,0.6392156862745098,0.3372549019607843,0.1686274509803921,-0.331735,0.0,0.943373
-0.0188599,-0.0479431,-0.283936,0.6745098039215687,0.3333333333333333,0.1215686274509803,-0.566905,0.0,0.823783
-0.0174408,-0.0477905,-0.282959,0.6941176470588235,0.3450980392156862,0.1098039215686274,-0.568979,0.0,0.822352
-0.016037,-0.0476074,-0.281982,0.6901960784313725,0.3372549019607843,0.0862745098039215,-0.573154,0.0,0.819448
-0.0146484,-0.0474548,-0.281006,0.6980392156862745,0.3450980392156862,0.0941176470588235,-0.338628,0.0,0.94092
-0.0133133,-0.0474548,-0.281006,0.6941176470588235,0.3294117647058823,0.0745098039215686,-0.338345,0.0,0.941022
-0.0119324,-0.0472717,-0.280029,0.6862745098039216,0.3215686274509804,0.0666666666666666,-0.338345,0.0,0.941022
-0.0105972,-0.0472717,-0.280029,0.6980392156862745,0.3333333333333333,0.0862745098039215,-0.338905,0.0,0.940821
-0.00923157,-0.0471191,-0.279053,0.6941176470588235,0.3254901960784314,0.0901960784313725,-0.342025,0.0,0.939691
-0.00790405,-0.0471191,-0.279053,0.6823529411764706,0.3254901960784314,0.0862745098039215,0.0,0.0,1.0
-0.00658035,-0.0471191,-0.279053,0.6784313725490196,0.3176470588235294,0.0980392156862745,-0.342315,0.0,0.939585
-0.00523376,-0.046936,-0.278076,0.6784313725490196,0.3254901960784314,0.1098039215686274,-0.240708,0.240708,0.940276
-0.00391006,-0.046936,-0.278076,0.6666666666666666,0.3254901960784314,0.1058823529411764,0.0,0.0,1.0
-0.00258636,-0.046936,-0.278076,0.6588235294117647,0.3176470588235294,0.0980392156862745,0.223131,-0.22532,0.94839
-0.00126934,-0.0471191,-0.279053,0.6549019607843137,0.3019607843137254,0.0862745098039215,0.346452,0.0,0.938068
5.78165e-05,-0.0471191,-0.279053,0.6705882352941176,0.3098039215686274,0.0901960784313725,0.34466,0.0,0.938727
0.00139046,-0.0472717,-0.280029,0.6745098039215687,0.3176470588235294,0.0862745098039215,0.223675,-0.221401,0.949184
0.00272179,-0.0472717,-0.280029,0.6666666666666666,0.3019607843137254,0.0549019607843137,0.427571,-0.106587,0.897676
0.00406647,-0.0474548,-0.281006,0.6823529411764706,0.3176470588235294,0.0705882352941176,0.58572,0.0,0.810513
0.0054245,-0.0476074,-0.281982,0.6666666666666666,0.2980392156862745,0.0627450980392156,0.221178,-0.220864,0.949894
0.00676727,-0.0476074,-0.281982,0.6823529411764706,0.3137254901960784,0.0784313725490196,0.423562,-0.105891,0.899657
0.00813293,-0.0477905,-0.282959,0.6862745098039216,0.3176470588235294,0.0823529411764705,0.579516,0.0,0.814961
0.00951385,-0.0479431,-0.283936,0.6980392156862745,0.3411764705882353,0.1019607843137254,0.57633,0.0,0.817217
0.0109024,-0.0481262,-0.284912,0.6941176470588235,0.3450980392156862,0.1019607843137254,0.33501,0.0,0.942215
0.0122604,-0.0481262,-0.284912,0.6705882352941176,0.3294117647058823,0.1019607843137254,0.333365,0.0,0.942798
0.0136642,-0.0482788,-0.285889,0.6549019607843137,0.3607843137254902,0.1333333333333333,0.332548,0.0,0.943086
0.0150299,-0.0482788,-0.285889,0.4431372549019607,0.2352941176470588,0.1058823529411764,0.0,0.0,1.0
0.0289001,-0.072998,-0.432617,0.6588235294117647,0.3647058823529411,0.1372549019607843,0.408248,0.408248,0.816497
0.0310364,-0.0731812,-0.433594,0.403921568627451,0.2509803921568627,0.1372549019607843,0.256053,0.50834,0.822209
0.0330811,-0.0731812,-0.433594,0.4,0.2705882352941176,0.1647058823529411,0.0725151,0.575856,0.814329
0.0351562,-0.0731812,-0.433594,0.4117647058823529,0.2941176470588235,0.2313725490196078,0.0,0.631087,0.775712
0.0450439,-0.0725098,-0.429443,0.4196078431372549,0.2901960784313726,0.2235294117647059,-0.08594,0.955513,0.28215
0.0470886,-0.0725098,-0.429443,0.392156862745098,0.2666666666666666,0.1725490196078431,0.0,0.961981,0.273115
0.0491333,-0.0725098,-0.429443,0.4117647058823529,0.2862745098039215,0.192156862745098,0.0362503,0.955568,0.292534
0.051178,-0.0725098,-0.429443,0.4274509803921568,0.2862745098039215,0.196078431372549,0.157175,0.941095,0.299395
0.0600586,-0.0733643,-0.43457,0.5137254901960784,0.3333333333333333,0.2117647058823529,0.338171,0.885371,0.318996
0.056366,-0.0350647,-0.207764,0.2274509803921568,0.1490196078431372,0.1098039215686274,0.0,0.0,1.0
0.0603333,-0.0350647,-0.207764,0.1411764705882353,0.1058823529411764,0.0784313725490196,0.0,0.0,1.0
0.1427,-0.0733643,-0.43457,0.188235294117647,0.1529411764705882,0.1254901960784313,0.0,0.748699,0.66291
-0.0245209,-0.0498352,-0.287109,0.6666666666666666,0.396078431372549,0.2235294117647059,0.0,0.0,0.0
-0.0230713,-0.0496521,-0.285889,0.6235294117647059,0.3137254901960784,0.1019607843137254,-0.232503,0.22992,0.945029
-0.0217133,-0.0496521,-0.285889,0.7411764705882353,0.4509803921568627,0.2862745098039215,-0.330121,0.0,0.943939
-0.0202789,-0.049469,-0.284912,0.6705882352941176,0.3764705882352941,0.2235294117647059,-0.488983,-0.098017,0.866769
-0.0188599,-0.0493164,-0.283936,0.6705882352941176,0.3607843137254902,0.1568627450980392,-0.566905,0.0,0.823783
