X,Y,Z,R,G,B,nX,nY,nZ
-0.349854,0.158325,-0.700684,0.6627450980392157,0.6509803921568628,0.6392156862745098,-0.451792,-0.22462,0.863383
-0.337402,0.157227,-0.695312,0.7294117647058823,0.7176470588235294,0.7058823529411765,-0.423842,-0.209977,0.88106
-0.333008,0.156738,-0.693359,0.7843137254901961,0.7647058823529411,0.7568627450980392,-0.321142,-0.160571,0.933319
-0.325439,0.15625,-0.691406,0.7725490196078432,0.7568627450980392,0.7294117647058823,-0.255595,-0.129375,0.958088
-0.321777,0.156006,-0.69043,0.3254901960784314,0.2823529411764706,0.2549019607843137,-0.255576,-0.126995,0.958412
-0.311035,0.15564,-0.688477,0.1372549019607843,0.1254901960784313,0.1137254901960784,0.0,0.0,1.0
-0.169312,0.178955,-0.791992,0.8784313725490196,0.8666666666666667,0.8470588235294118,0.0,0.2356,0.97185
-0.180054,0.305908,-1.35352,0.7098039215686275,0.6823529411764706,0.6509803921568628,0.0,0.0,1.0
-0.173584,0.305908,-1.35352,0.7215686274509804,0.7058823529411765,0.6784313725490196,-0.048341,0.0492707,0.997615
-0.166992,0.305664,-1.35254,0.7294117647058823,0.7176470588235294,0.6980392156862745,-0.191843,0.0479607,0.980253
-0.546387,0.180298,-0.814941,0.592156862745098,0.5647058823529412,0.5411764705882353,-0.5806,0.417599,0.698938
-0.342041,0.154541,-0.698242,0.6549019607843137,0.6274509803921569,0.6039215686274509,-0.381192,-0.135535,0.914507
-0.333496,0.153687,-0.694336,0.7647058823529411,0.7529411764705882,0.7333333333333333,-0.375716,-0.18717,0.907637
-0.329834,0.153442,-0.693359,0.7529411764705882,0.7411764705882353,0.7215686274509804,-0.321142,-0.160571,0.933319
-0.325439,0.152954,-0.691406,0.7568627450980392,0.7450980392156863,0.7254901960784313,-0.348801,-0.117702,0.929776
-0.317871,0.152588,-0.689453,0.796078431372549,0.7843137254901961,0.7725490196078432,-0.249878,0.0,0.968277
-0.314209,0.152344,-0.688477,0.5607843137254902,0.5333333333333333,0.5098039215686274,-0.140622,0.0,0.990063
-0.180054,0.299561,-1.35352,0.6980392156862745,0.6823529411764706,0.6470588235294118,0.0,0.0,1.0
-0.173584,0.299561,-1.35352,0.7254901960784313,0.7098039215686275,0.6823529411764706,-0.050235,-0.0251175,0.998422
-0.166992,0.299316,-1.35254,0.7450980392156863,0.7294117647058823,0.7019607843137254,-0.172917,-0.0493377,0.9837
-0.140259,0.297119,-1.34277,0.1647058823529411,0.1450980392156863,0.1372549019607843,-0.408662,-0.136221,0.902463
-0.540527,0.174438,-0.805664,0.6901960784313725,0.6784313725490196,0.6666666666666666,-0.417085,0.613096,0.670935
-0.491943,0.167114,-0.771973,0.0784313725490196,0.0666666666666666,0.0549019607843137,0.141421,0.0,0.989949
-0.458252,0.16687,-0.770996,0.0705882352941176,0.0588235294117647,0.0470588235294117,-0.566466,0.166608,0.807067
-0.45166,0.165771,-0.765625,0.0627450980392156,0.0509803921568627,0.0392156862745098,-0.620975,0.132965,0.77247
-0.415771,0.159058,-0.734863,0.2274509803921568,0.2156862745098039,0.2039215686274509,-0.611792,0.188678,0.768187
-0.346436,0.151611,-0.700684,0.2470588235294117,0.1843137254901961,0.1568627450980392,-0.418487,-0.161006,0.893838
-0.342041,0.151245,-0.698242,0.392156862745098,0.3568627450980392,0.3215686274509804,-0.456088,-0.175764,0.872405
-0.329834,0.150146,-0.693359,0.7450980392156863,0.7333333333333333,0.7137254901960784,-0.347178,-0.114297,0.930808
-0.311035,0.149048,-0.688477,0.1647058823529411,0.1490196078431372,0.1215686274509803,-0.0911862,0.0911862,0.99165
-0.180054,0.292969,-1.35352,0.6980392156862745,0.6823529411764706,0.6549019607843137,0.0512624,-0.156745,0.986308
-0.173584,0.292969,-1.35352,0.7215686274509804,0.7058823529411765,0.6784313725490196,-0.0251848,-0.128346,0.99141
-0.167114,0.292969,-1.35352,0.7294117647058823,0.7137254901960784,0.6862745098039216,-0.149863,-0.148914,0.977428
-0.346436,0.148315,-0.700684,0.7568627450980392,0.7450980392156863,0.7254901960784313,-0.363269,-0.0742447,0.928722
-0.333984,0.147217,-0.695312,0.3294117647058823,0.2862745098039215,0.2588235294117647,-0.348318,-0.117058,0.930039
-0.330322,0.147095,-0.694336,0.5529411764705883,0.5254901960784314,0.5019607843137255,-0.372262,-0.073905,0.92518
-0.325928,0.146606,-0.692383,0.7294117647058823,0.7176470588235294,0.7058823529411765,-0.316072,-0.0409723,0.94785
-0.0662231,0.0686035,-0.324219,0.4392156862745098,0.2549019607843137,0.1686274509803921,-0.483077,0.0,0.875578
-0.180176,0.286865,-1.35449,0.6941176470588235,0.6784313725490196,0.6509803921568628,0.156041,-0.155066,0.975503
-0.173828,0.287109,-1.35547,0.7019607843137254,0.6823529411764706,0.6666666666666666,0.0,-0.233373,0.972387
-0.167236,0.286865,-1.35449,0.7294117647058823,0.7137254901960784,0.6862745098039216,-0.1514,-0.228065,0.961803
-0.160767,0.286621,-1.35352,0.7137254901960784,0.7019607843137254,0.6901960784313725,-0.288796,-0.216826,0.932514
-0.362793,0.14624,-0.706543,0.192156862745098,0.1803921568627451,0.1686274509803921,-0.29942,0.0758712,0.9511
-0.334473,0.144165,-0.696289,0.6352941176470588,0.6196078431372549,0.5843137254901961,-0.373571,-0.0747142,0.924588
-0.330322,0.143677,-0.694336,0.2039215686274509,0.1686274509803921,0.1411764705882353,-0.372262,-0.073905,0.92518
-0.317871,0.1427,-0.689453,0.2117647058823529,0.1764705882352941,0.1490196078431372,-0.372618,-0.0748006,0.924965
-0.314209,0.142456,-0.688477,0.4980392156862745,0.4705882352941176,0.4313725490196078,-0.222575,-0.0428663,0.973973
-0.0662231,0.0670776,-0.324219,0.5882352941176471,0.3450980392156862,0.2274509803921568,-0.389984,0.200901,0.898638
-0.0645142,0.0668945,-0.323242,0.5529411764705883,0.2823529411764706,0.1725490196078431,-0.496139,0.0,0.868243
-0.180298,0.280518,-1.35547,0.6980392156862745,0.6862745098039216,0.6745098039215687,0.20485,-0.206801,0.956697
-0.17395,0.280762,-1.35645,0.6901960784313725,0.6784313725490196,0.6588235294117647,0.0543568,-0.205779,0.977088
-0.16748,0.280762,-1.35645,0.7450980392156863,0.7254901960784313,0.7098039215686275,-0.149578,-0.224843,0.962846
-0.492432,0.15625,-0.772949,0.0627450980392156,0.0509803921568627,0.0392156862745098,0.306762,-0.155923,0.938928
-0.397461,0.145752,-0.720703,0.1137254901960784,0.1019607843137254,0.0901960784313725,-0.470736,0.0314523,0.881713
-0.387939,0.144653,-0.715332,0.1098039215686274,0.0980392156862745,0.0862745098039215,-0.476105,-0.0286545,0.878921
-0.334473,0.140869,-0.696289,0.5607843137254902,0.5490196078431373,0.5294117647058824,-0.307368,0.076137,0.94854
-0.330322,0.140381,-0.694336,0.5607843137254902,0.5490196078431373,0.5372549019607843,-0.341743,0.0,0.939793
-0.067749,0.0655518,-0.324219,0.7294117647058823,0.4156862745098039,0.2392156862745098,-0.614487,0.251975,0.747606
-0.06604,0.0653687,-0.323242,0.7137254901960784,0.3529411764705882,0.1764705882352941,-0.221974,0.497044,0.838853
-0.0645142,0.0653687,-0.323242,0.7098039215686275,0.3411764705882353,0.1843137254901961,-0.393752,0.322581,0.860756
-0.062561,0.0649414,-0.321045,0.6627450980392157,0.3137254901960784,0.1686274509803921,-0.40199,0.0,0.915644
-0.0610352,0.0649414,-0.321045,0.6196078431372549,0.2784313725490196,0.1411764705882353,-0.190247,0.190247,0.963126
-0.0595093,0.0649414,-0.321045,0.5803921568627451,0.2745098039215686,0.1411764705882353,0.0,0.496139,0.868243
-0.388428,0.141479,-0.716797,0.1058823529411764,0.0941176470588235,0.0823529411764705,-0.473602,-0.104869,0.874473
-0.384033,0.141113,-0.714355,0.1019607843137254,0.0901960784313725,0.0784313725490196,-0.429142,-0.121086,0.895084
-0.379395,0.140747,-0.712402,0.1019607843137254,0.0823529411764705,0.0745098039215686,-0.376824,-0.0374329,0.925528
-0.338379,0.137695,-0.697266,0.5294117647058824,0.5098039215686274,0.5019607843137255,-0.346118,0.128192,0.929392
-0.330322,0.137085,-0.694336,0.4941176470588235,0.4745098039215686,0.4666666666666667,-0.279892,0.0385036,0.959259
-0.069519,0.064209,-0.325195,0.8156862745098039,0.4745098039215686,0.2627450980392157,-0.539862,0.360684,0.760563
-0.067749,0.0640259,-0.324219,0.796078431372549,0.403921568627451,0.1490196078431372,-0.615885,0.190802,0.764382
-0.0657959,0.0635986,-0.322021,0.792156862745098,0.4078431372549019,0.1607843137254902,-0.481848,0.258318,0.837313
-0.06427,0.0635986,-0.322021,0.7843137254901961,0.392156862745098,0.1450980392156863,-0.223701,0.500911,0.83609
-0.062561,0.0634155,-0.321045,0.7333333333333333,0.3372549019607843,0.1098039215686274,-0.33985,0.338254,0.877546
-0.0610352,0.0634155,-0.321045,0.7137254901960784,0.3176470588235294,0.0980392156862745,-0.190247,0.190247,0.963126
-0.0593262,0.0632324,-0.320068,0.6980392156862745,0.3254901960784314,0.1098039215686274,-0.230724,0.115362,0.966156
-0.0578003,0.0632324,-0.320068,0.596078431372549,0.3333333333333333,0.196078431372549,0.0,0.0,1.0
-0.362305,0.135986,-0.705566,0.1098039215686274,0.0980392156862745,0.0862745098039215,-0.406138,0.0,0.913812
-0.354004,0.135376,-0.702637,0.1098039215686274,0.0901960784313725,0.0823529411764705,-0.332764,0.110027,0.936569
-0.349854,0.13501,-0.700684,0.1215686274509803,0.0941176470588235,0.0705882352941176,-0.347251,0.130385,0.928664
-0.345947,0.134766,-0.699707,0.1137254901960784,0.0941176470588235,0.0784313725490196,-0.258711,0.263415,0.929344
-0.337891,0.134155,-0.696289,0.1568627450980392,0.1137254901960784,0.0941176470588235,-0.307737,0.0765798,0.948385
-0.330322,0.133789,-0.694336,0.1058823529411764,0.0941176470588235,0.0745098039215686,-0.249878,0.0,0.968277
-0.0693359,0.0624695,-0.324219,0.8156862745098039,0.4313725490196078,0.1843137254901961,-0.549714,0.36961,0.749135
-0.0675659,0.0622864,-0.323242,0.8196078431372549,0.4235294117647059,0.1529411764705882,-0.425461,0.438099,0.791866
-0.0657959,0.0620728,-0.322021,0.8274509803921568,0.4078431372549019,0.1450980392156863,-0.534002,0.275393,0.799375
-0.0640869,0.0618896,-0.321045,0.796078431372549,0.3686274509803922,0.1019607843137254,-0.32631,0.32631,0.887155
-0.0623779,0.0617065,-0.320068,0.7490196078431373,0.3254901960784314,0.0901960784313725,-0.32631,0.32631,0.887155
-0.0608521,0.0617065,-0.320068,0.7450980392156863,0.3333333333333333,0.0862745098039215,0.0,0.496139,0.868243
-0.0593262,0.0617065,-0.320068,0.7176470588235294,0.3254901960784314,0.0862745098039215,-0.0900398,0.360159,0.928536
-0.0578003,0.0617065,-0.320068,0.611764705882353,0.2980392156862745,0.1215686274509803,0.0,0.336479,0.941691
-0.35791,0.132202,-0.703613,0.1137254901960784,0.1019607843137254,0.0901960784313725,-0.396982,0.101357,0.912213
-0.071106,0.0611267,-0.325195,0.7529411764705882,0.4352941176470588,0.2705882352941176,-0.473389,0.477936,0.739919
-0.0690918,0.06073,-0.323242,0.8549019607843137,0.4823529411764706,0.2117647058823529,-0.55362,0.38538,0.738233
-0.0673828,0.0605469,-0.322021,0.8235294117647058,0.4274509803921568,0.1568627450980392,-0.435317,0.431007,0.7904
-0.0656128,0.0603638,-0.321045,0.8392156862745098,0.403921568627451,0.1372549019607843,-0.419386,0.428109,0.800524
-0.0639038,0.0601807,-0.320068,0.8,0.3686274509803922,0.0901960784313725,-0.23375,0.461268,0.855916
-0.0623779,0.0601807,-0.320068,0.7725490196078432,0.3529411764705882,0.0901960784313725,-0.264906,0.264906,0.927173
-0.0606689,0.0599976,-0.319092,0.7529411764705882,0.3333333333333333,0.0705882352941176,-0.190247,0.190247,0.963126
-0.0591431,0.0599976,-0.319092,0.7294117647058823,0.3176470588235294,0.0705882352941176,0.0,0.289005,0.957328
-0.0576172,0.0599976,-0.319092,0.6980392156862745,0.2980392156862745,0.0980392156862745,0.0,0.289845,0.957073
-0.0561218,0.0599976,-0.319092,0.6313725490196078,0.3058823529411765,0.1529411764705882,0.0,0.368421,0.929659
-0.495117,0.142334,-0.776855,0.0745098039215686,0.0549019607843137,0.0470588235294117,0.62174,-0.31087,0.718887
-0.456299,0.140625,-0.767578,0.0627450980392156,0.0431372549019607,0.0352941176470588,-0.64999,-0.104856,0.752674
-0.449219,0.139526,-0.761719,0.0901960784313725,0.0705882352941176,0.0627450980392156,-0.64705,-0.0862733,0.757551
-0.0706177,0.0592041,-0.323242,0.7843137254901961,0.4666666666666667,0.2666666666666666,-0.486501,0.481684,0.728901
-0.0689087,0.059021,-0.322021,0.8274509803921568,0.4509803921568627,0.2078431372549019,-0.462181,0.462181,0.756821
-0.0671387,0.0588379,-0.321045,0.8392156862745098,0.4274509803921568,0.1803921568627451,-0.423634,0.423634,0.800668
-0.0654297,0.0586548,-0.320068,0.8313725490196079,0.396078431372549,0.1294117647058823,-0.371836,0.371836,0.850574
-0.0636597,0.0584717,-0.319092,0.8313725490196079,0.4,0.1215686274509803,-0.328102,0.32154,0.888235
-0.0621948,0.0584717,-0.319092,0.792156862745098,0.3686274509803922,0.0823529411764705,0.0,0.496139,0.868243
-0.0606689,0.0584717,-0.319092,0.7607843137254902,0.3372549019607843,0.0588235294117647,-0.0900398,0.360159,0.928536
-0.0591431,0.0584717,-0.319092,0.7529411764705882,0.3450980392156862,0.0784313725490196,0.101828,0.203656,0.973733
-0.0576172,0.0584717,-0.319092,0.7254901960784313,0.3333333333333333,0.0941176470588235,0.0,0.0,1.0
-0.0561218,0.0584717,-0.319092,0.6745098039215687,0.3137254901960784,0.1098039215686274,0.0,0.0,1.0
-0.0704346,0.0574951,-0.322021,0.8,0.4627450980392157,0.2431372549019607,-0.616969,0.277754,0.736344
-0.0686646,0.057312,-0.321045,0.8274509803921568,0.4509803921568627,0.192156862745098,-0.423634,0.423634,0.800668
-0.0669556,0.0571289,-0.320068,0.8627450980392157,0.4431372549019607,0.1803921568627451,-0.413255,0.413255,0.811444
-0.0651855,0.0569458,-0.319092,0.8392156862745098,0.4078431372549019,0.1294117647058823,-0.229578,0.46532,0.854852
-0.0636597,0.0569458,-0.319092,0.8313725490196079,0.4,0.1215686274509803,-0.26625,0.26625,0.926403
-0.0619812,0.0567627,-0.318115,0.8,0.3686274509803922,0.0823529411764705,-0.194425,0.190497,0.962242
-0.0604858,0.0567627,-0.318115,0.7764705882352941,0.3411764705882353,0.0745098039215686,0.0,0.291524,0.956563
-0.05896,0.0567627,-0.318115,0.7686274509803922,0.3411764705882353,0.0901960784313725,0.186069,0.375896,0.907789
-0.0576172,0.0569458,-0.319092,0.7333333333333333,0.3803921568627451,0.1647058823529411,0.293974,0.293974,0.909483
-0.0561218,0.0569458,-0.319092,0.6823529411764706,0.3254901960784314,0.1294117647058823,0.0,0.0,1.0
-0.0545959,0.0569458,-0.319092,0.6196078431372549,0.2980392156862745,0.1254901960784313,0.0,0.0,1.0
-0.381104,0.124268,-0.715332,0.0823529411764705,0.0705882352941176,0.0588235294117647,-0.54288,-0.0756803,0.836393
-0.376221,0.123779,-0.712402,0.0980392156862745,0.0862745098039215,0.0745098039215686,-0.492065,-0.0294712,0.87006
-0.348633,0.121338,-0.698242,0.1098039215686274,0.0901960784313725,0.0823529411764705,-0.343205,0.110051,0.932791
-0.344971,0.121155,-0.697266,0.1019607843137254,0.0901960784313725,0.0784313725490196,-0.294917,0.05701,0.953821
-0.0704346,0.0559692,-0.322021,0.8274509803921568,0.4745098039215686,0.2235294117647059,-0.624949,0.185428,0.758324
-0.0684814,0.055603,-0.320068,0.8274509803921568,0.4392156862745098,0.1568627450980392,-0.560564,0.146112,0.815119
-0.0667114,0.0554199,-0.319092,0.8431372549019608,0.4235294117647059,0.1529411764705882,-0.461316,0.228344,0.857349
-0.0650024,0.0552673,-0.318115,0.8470588235294118,0.4156862745098039,0.1294117647058823,-0.327049,0.327049,0.88661
-0.0634766,0.0552673,-0.318115,0.8235294117647058,0.3843137254901961,0.1019607843137254,0.0,0.502894,0.864348
-0.0619812,0.0552673,-0.318115,0.8156862745098039,0.3843137254901961,0.1058823529411764,-0.0911388,0.366415,0.925977
-0.0604858,0.0552673,-0.318115,0.7803921568627451,0.3568627450980392,0.0784313725490196,0.0,0.294086,0.955779
-0.05896,0.0552673,-0.318115,0.7568627450980392,0.3372549019607843,0.0666666666666666,0.10343,0.20686,0.972888
-0.0574341,0.0552673,-0.318115,0.7176470588235294,0.3294117647058823,0.1019607843137254,0.295887,0.293901,0.908885
-0.0561218,0.0554199,-0.319092,0.6588235294117647,0.2980392156862745,0.0784313725490196,0.295887,0.293901,0.908885
-0.0545959,0.0554199,-0.319092,0.6431372549019608,0.2862745098039215,0.0980392156862745,0.0,0.0,1.0
-0.182861,0.23877,-1.375,0.6078431372549019,0.3019607843137254,0.1686274509803921,0.0,0.0,0.0
-0.366211,0.119385,-0.706543,0.2941176470588235,0.2666666666666666,0.2431372549019607,-0.457244,0.0923281,0.884536
-0.361816,0.119019,-0.70459,0.3098039215686274,0.2941176470588235,0.2666666666666666,-0.414722,0.130109,0.900598
-0.357422,0.118652,-0.702637,0.4509803921568627,0.4352941176470588,0.4078431372549019,-0.378038,0.0703326,0.923115
-0.348633,0.117981,-0.698242,0.4431372549019607,0.4235294117647059,0.4078431372549019,-0.39055,0.0,0.920582
-0.344971,0.117859,-0.697266,0.2666666666666666,0.2549019607843137,0.2431372549019607,-0.249878,0.0,0.968277
-0.0719604,0.0544128,-0.322021,0.7803921568627451,0.4588235294117647,0.3215686274509804,-0.618461,0.273178,0.736804
-0.0701904,0.0542603,-0.321045,0.8117647058823529,0.4588235294117647,0.2078431372549019,-0.426201,0.421814,0.800266
-0.0684814,0.0540771,-0.320068,0.8156862745098039,0.4235294117647059,0.1254901960784313,-0.49687,0.279044,0.821739
-0.0667114,0.0539246,-0.319092,0.8313725490196079,0.4196078431372549,0.1176470588235294,-0.459294,0.233487,0.857049
-0.0650024,0.0537415,-0.318115,0.8196078431372549,0.396078431372549,0.1176470588235294,-0.418197,0.168628,0.892567
-0.0632935,0.0535889,-0.317139,0.8392156862745098,0.4196078431372549,0.1490196078431372,-0.193136,0.191205,0.962361
-0.0617981,0.0535889,-0.317139,0.7843137254901961,0.3529411764705882,0.0745098039215686,0.0,0.290668,0.956824
-0.0602722,0.0535889,-0.317139,0.7803921568627451,0.3568627450980392,0.0784313725490196,0.0,0.291524,0.956564
-0.0587769,0.0535889,-0.317139,0.7529411764705882,0.3372549019607843,0.0549019607843137,0.190341,0.376874,0.906497
-0.0574341,0.0537415,-0.318115,0.6784313725490196,0.2823529411764706,0.0196078431372549,0.296129,0.29218,0.909362
-0.0559387,0.0537415,-0.318115,0.6588235294117647,0.2862745098039215,0.0705882352941176,0.293974,0.293974,0.909483
-0.0545959,0.0539246,-0.319092,0.6588235294117647,0.3019607843137254,0.1058823529411764,0.292084,0.294045,0.910068
-0.0530701,0.0539246,-0.319092,0.5254901960784314,0.2549019607843137,0.1372549019607843,0.0,0.0,1.0
-0.353027,0.11499,-0.700684,0.3607843137254902,0.3333333333333333,0.3098039215686274,-0.373027,0.106301,0.921711
-0.348633,0.114685,-0.698242,0.4862745098039215,0.4745098039215686,0.4549019607843137,-0.390891,0.0,0.920437
-0.341064,0.114319,-0.696289,0.2784313725490196,0.2666666666666666,0.2549019607843137,-0.215868,-0.0411177,0.975556
-0.329834,0.113831,-0.693359,0.192156862745098,0.1725490196078431,0.1647058823529411,-0.252965,-0.128044,0.958965
-0.0719604,0.052887,-0.322021,0.8,0.5058823529411764,0.3686274509803922,-0.624146,0.183329,0.759495
-0.0700073,0.0525513,-0.320068,0.807843137254902,0.4313725490196078,0.1803921568627451,-0.589208,0.203355,0.781972
-0.0682373,0.0523987,-0.319092,0.8235294117647058,0.4274509803921568,0.1490196078431372,-0.413754,0.417934,0.808789
-0.0665283,0.0522156,-0.318115,0.8392156862745098,0.4196078431372549,0.1490196078431372,-0.379584,0.376523,0.845072
-0.0648193,0.052063,-0.317139,0.8392156862745098,0.4196078431372549,0.1490196078431372,-0.32727,0.330576,0.88522
-0.0632935,0.052063,-0.317139,0.8156862745098039,0.4,0.1098039215686274,-0.0915573,0.364398,0.926732
-0.0617981,0.052063,-0.317139,0.7843137254901961,0.3725490196078431,0.0705882352941176,0.0,0.291524,0.956564
-0.0602722,0.052063,-0.317139,0.7843137254901961,0.3686274509803922,0.0784313725490196,0.101734,0.205543,0.973346
-0.0587769,0.052063,-0.317139,0.7176470588235294,0.3098039215686274,0.0431372549019607,0.0,0.0,1.0
-0.0572815,0.052063,-0.317139,0.7254901960784313,0.3137254901960784,0.0666666666666666,0.40277,0.199351,0.893328
-0.0559387,0.0522156,-0.318115,0.6784313725490196,0.2784313725490196,0.0352941176470588,0.212946,0.105397,0.971363
-0.0544128,0.0522156,-0.318115,0.6588235294117647,0.3058823529411765,0.0980392156862745,0.293152,0.293152,0.910013
-0.0530701,0.0523987,-0.319092,0.5686274509803921,0.2666666666666666,0.1058823529411764,0.290726,0.290726,0.911568
-0.352539,0.111511,-0.699707,0.3294117647058823,0.3098039215686274,0.3019607843137254,-0.350588,0.0733078,0.933656
-0.344971,0.111206,-0.697266,0.3294117647058823,0.3098039215686274,0.3019607843137254,-0.249901,0.0,0.968271
-0.330322,0.110718,-0.694336,0.3490196078431372,0.3372549019607843,0.3254901960784314,-0.252599,-0.251822,0.934227
-0.326416,0.110535,-0.693359,0.2549019607843137,0.2431372549019607,0.2235294117647059,-0.178771,-0.225119,0.95779
-0.323242,0.110535,-0.693359,0.4352941176470588,0.4274509803921568,0.396078431372549,0.0,-0.198501,0.980101
-0.0700073,0.0510254,-0.320068,0.796078431372549,0.4431372549019607,0.2274509803921568,-0.597026,0.191901,0.778932
-0.0680542,0.0507202,-0.318115,0.8156862745098039,0.4196078431372549,0.1568627450980392,-0.562451,0.146237,0.813796
-0.0662842,0.0505676,-0.317139,0.8313725490196079,0.4352941176470588,0.1647058823529411,-0.329038,0.325714,0.886366
-0.0648193,0.0505676,-0.317139,0.8313725490196079,0.4235294117647059,0.1568627450980392,-0.270372,0.264854,0.925609
-0.0631104,0.0503845,-0.316162,0.796078431372549,0.3725490196078431,0.0862745098039215,-0.189972,0.193849,0.962462
-0.0615845,0.0503845,-0.316162,0.807843137254902,0.4078431372549019,0.0941176470588235,0.0,0.294086,0.955779
-0.0600891,0.0503845,-0.316162,0.7568627450980392,0.3529411764705882,0.0588235294117647,0.188749,0.379424,0.905766
-0.0587769,0.0505676,-0.317139,0.7450980392156863,0.3450980392156862,0.0941176470588235,0.297555,0.295545,0.907807
-0.0572815,0.0505676,-0.317139,0.7137254901960784,0.3137254901960784,0.0627450980392156,0.214197,0.10818,0.970782
-0.0559387,0.0507202,-0.318115,0.6901960784313725,0.3058823529411765,0.0666666666666666,0.399967,0.202003,0.893992
-0.0544128,0.0507202,-0.318115,0.7294117647058823,0.3843137254901961,0.192156862745098,0.0,0.0,1.0
-0.0529175,0.0507202,-0.318115,0.611764705882353,0.3098039215686274,0.1294117647058823,0.293152,0.293152,0.910013
-0.172485,0.214355,-1.34473,0.5019607843137255,0.2588235294117647,0.1411764705882353,0.227183,0.768441,0.598236
-0.365234,0.108948,-0.70459,0.2862745098039215,0.2588235294117647,0.2352941176470588,-0.47147,0.119738,0.873716
-0.36084,0.108643,-0.702637,0.192156862745098,0.1607843137254902,0.1490196078431372,-0.368381,0.170209,0.913961
-0.330811,0.107544,-0.695312,0.2509803921568627,0.2392156862745098,0.2274509803921568,-0.138064,-0.138911,0.980634
-0.0697632,0.0493469,-0.319092,0.8313725490196079,0.5254901960784314,0.3568627450980392,-0.418569,0.414341,0.808159
-0.0680542,0.0491943,-0.318115,0.8352941176470589,0.4745098039215686,0.2705882352941176,-0.499471,0.282122,0.819107
-0.0662842,0.0490417,-0.317139,0.8196078431372549,0.4274509803921568,0.1803921568627451,-0.413907,0.170236,0.89426
-0.0645752,0.0488892,-0.316162,0.8,0.3803921568627451,0.1176470588235294,-0.271268,0.263936,0.925609
-0.0631104,0.0488892,-0.316162,0.7803921568627451,0.3529411764705882,0.0862745098039215,-0.0923867,0.365776,0.926106
-0.0615845,0.0488892,-0.316162,0.7803921568627451,0.3568627450980392,0.0705882352941176,0.0,0.295824,0.955243
-0.0600891,0.0488892,-0.316162,0.7725490196078432,0.3607843137254902,0.0588235294117647,0.104415,0.208829,0.972362
-0.0585938,0.0488892,-0.316162,0.7372549019607844,0.3294117647058823,0.0627450980392156,0.299227,0.297205,0.906715
-0.0572815,0.0490417,-0.317139,0.7137254901960784,0.3215686274509804,0.0666666666666666,0.295625,0.295625,0.908411
-0.0557556,0.0490417,-0.317139,0.7019607843137254,0.3058823529411765,0.0784313725490196,0.399967,0.202003,0.893992
-0.0544128,0.0491943,-0.318115,0.6588235294117647,0.2745098039215686,0.0784313725490196,0.214197,0.10818,0.970782
-0.0529175,0.0491943,-0.318115,0.5764705882352941,0.2549019607843137,0.0745098039215686,0.0,0.0,1.0
-0.171143,0.206421,-1.33496,0.5372549019607843,0.2588235294117647,0.1254901960784313,0.231869,0.806675,0.54361
-0.453369,0.115234,-0.768555,0.1058823529411764,0.0941176470588235,0.0823529411764705,-0.66143,-0.0229228,0.749656
-0.365234,0.105591,-0.70459,0.3333333333333333,0.3215686274509804,0.3098039215686274,-0.457773,0.0933323,0.884157
-0.360352,0.105164,-0.70166,0.1647058823529411,0.1450980392156863,0.1294117647058823,-0.398117,0.101801,0.911669
-0.0715332,0.0480042,-0.320068,0.8117647058823529,0.4941176470588235,0.3294117647058823,-0.613872,0.24358,0.750886
-0.069519,0.047699,-0.318115,0.8705882352941177,0.5568627450980392,0.3725490196078431,-0.523543,0.333164,0.784158
-0.0678101,0.0475464,-0.317139,0.8627450980392157,0.4980392156862745,0.3058823529411765,-0.421534,0.417276,0.805102
-0.0661011,0.0473938,-0.316162,0.8156862745098039,0.4470588235294118,0.2196078431372549,-0.234335,0.471858,0.849963
-0.0645752,0.0473938,-0.316162,0.8,0.4,0.1647058823529411,-0.266353,0.271789,0.924763
-0.0628662,0.0472412,-0.315186,0.7843137254901961,0.3843137254901961,0.1411764705882353,-0.196118,0.192115,0.961577
-0.0614014,0.0472412,-0.315186,0.792156862745098,0.3803921568627451,0.1333333333333333,0.0,0.297569,0.9547
-0.059906,0.0472412,-0.315186,0.7843137254901961,0.3843137254901961,0.1333333333333333,0.300069,0.298041,0.906162
-0.0585938,0.0473938,-0.316162,0.7529411764705882,0.3568627450980392,0.1294117647058823,0.216434,0.107124,0.970402
-0.0570984,0.0473938,-0.316162,0.6941176470588235,0.3058823529411765,0.0862745098039215,0.403613,0.201807,0.892396
-0.0557556,0.0475464,-0.317139,0.6627450980392157,0.2862745098039215,0.0980392156862745,0.401376,0.200688,0.893656
-0.0544128,0.047699,-0.318115,0.6627450980392157,0.3176470588235294,0.1450980392156863,0.40277,0.199351,0.893328
-0.0529175,0.047699,-0.318115,0.5647058823529412,0.2745098039215686,0.1098039215686274,0.0,0.0,1.0
-0.0513916,0.047699,-0.318115,0.5019607843137255,0.3019607843137254,0.2039215686274509,0.0,0.0,1.0
-0.169556,0.198242,-1.32227,0.5137254901960784,0.2392156862745098,0.0941176470588235,0.243256,0.824882,0.510291
-0.151611,0.199463,-1.33105,0.7137254901960784,0.6980392156862745,0.6627450980392157,0.208875,0.808316,0.55045
-0.145752,0.200073,-1.33496,0.8705882352941177,0.8431372549019608,0.8117647058823529,0.347732,0.764137,0.543302
-0.360352,0.101807,-0.70166,0.4156862745098039,0.403921568627451,0.392156862745098,-0.398487,0.102052,0.911479
-0.352051,0.101379,-0.698242,0.2980392156862745,0.2862745098039215,0.2745098039215686,-0.293412,0.113259,0.949253
-0.348145,0.101257,-0.697266,0.3725490196078431,0.3529411764705882,0.3372549019607843,-0.133304,0.129264,0.982609
-0.344971,0.101257,-0.697266,0.3411764705882353,0.3058823529411765,0.2862745098039215,-0.132155,0.130524,0.982598
-0.333984,0.100952,-0.695312,0.2745098039215686,0.2627450980392157,0.2509803921568627,-0.137007,0.0,0.99057
-0.0730591,0.0464783,-0.320068,0.803921568627451,0.5294117647058824,0.3843137254901961,-0.552106,0.379667,0.742315
-0.0712891,0.0463257,-0.319092,0.8235294117647058,0.4823529411764706,0.2823529411764706,-0.528748,0.325995,0.783679
-0.0693359,0.0460205,-0.317139,0.807843137254902,0.4352941176470588,0.2196078431372549,-0.59444,0.202589,0.778203
-0.067627,0.0458679,-0.316162,0.8352941176470589,0.4823529411764706,0.2745098039215686,-0.461117,0.235201,0.8556
-0.0658569,0.0457458,-0.315186,0.8313725490196079,0.4509803921568627,0.2274509803921568,-0.3328,0.329439,0.88358
-0.0643921,0.0457458,-0.315186,0.8,0.4196078431372549,0.188235294117647,0.0,0.509802,0.860292
-0.0628662,0.0457458,-0.315186,0.7803921568627451,0.396078431372549,0.1568627450980392,-0.09245,0.3698,0.9245
-0.0614014,0.0457458,-0.315186,0.7843137254901961,0.392156862745098,0.1450980392156863,0.1055,0.208847,0.972241
-0.059906,0.0457458,-0.315186,0.7411764705882353,0.3450980392156862,0.0823529411764705,0.217085,0.108543,0.970099
-0.0585938,0.0458679,-0.316162,0.7294117647058823,0.3372549019607843,0.0901960784313725,0.40893,0.203427,0.889603
-0.0570984,0.0458679,-0.316162,0.7019607843137254,0.3137254901960784,0.0862745098039215,0.324331,0.0,0.945944
-0.0557556,0.0460205,-0.317139,0.6705882352941176,0.2980392156862745,0.0901960784313725,0.326396,0.0,0.945233
-0.0542603,0.0460205,-0.317139,0.6,0.2549019607843137,0.0745098039215686,0.403465,0.198692,0.893161
-0.0529175,0.0461731,-0.318115,0.5607843137254902,0.2588235294117647,0.0901960784313725,0.212996,0.104368,0.971463
-0.0513916,0.0461731,-0.318115,0.4823529411764706,0.2705882352941176,0.1764705882352941,0.0,0.0,1.0
-0.168091,0.190186,-1.31055,0.5333333333333333,0.2862745098039215,0.1333333333333333,0.184869,0.818771,0.543542
-0.156372,0.191162,-1.31641,0.8627450980392157,0.8431372549019608,0.8352941176470589,0.20316,0.833548,0.513735
-0.150391,0.191528,-1.31934,0.8588235294117647,0.8313725490196079,0.8,0.250867,0.81133,0.528024
-0.144531,0.192139,-1.32324,0.8509803921568627,0.8235294117647058,0.792156862745098,0.414034,0.75713,0.505302
-0.341064,0.0977783,-0.696289,0.6196078431372549,0.6078431372549019,0.596078431372549,-0.132422,0.133234,0.982198
-0.337402,0.0976562,-0.695312,0.3058823529411765,0.2941176470588235,0.2823529411764706,-0.0922358,0.0913896,0.991534
-0.0728149,0.0447998,-0.319092,0.8,0.4980392156862745,0.3372549019607843,-0.552687,0.361893,0.750713
-0.0710449,0.0446472,-0.318115,0.8274509803921568,0.4549019607843137,0.2470588235294117,-0.417619,0.417619,0.806962
-0.0693359,0.0445251,-0.317139,0.8549019607843137,0.4745098039215686,0.2431372549019607,-0.505198,0.280341,0.816201
-0.067627,0.0443726,-0.316162,0.8235294117647058,0.4431372549019607,0.2117647058823529,-0.464741,0.23237,0.854412
-0.0658569,0.0442505,-0.315186,0.8196078431372549,0.4352941176470588,0.188235294117647,-0.420597,0.170975,0.890991
-0.064209,0.0440979,-0.314209,0.7843137254901961,0.392156862745098,0.1450980392156863,-0.194703,0.194703,0.961344
-0.0626831,0.0440979,-0.314209,0.803921568627451,0.4274509803921568,0.1764705882352941,0.0,0.29844,0.954428
-0.0612183,0.0440979,-0.314209,0.7372549019607844,0.3450980392156862,0.0901960784313725,0.193472,0.382996,0.903262
-0.059906,0.0442505,-0.315186,0.7490196078431373,0.3411764705882353,0.0823529411764705,0.300069,0.298041,0.906162
-0.0584106,0.0442505,-0.315186,0.7411764705882353,0.3411764705882353,0.0980392156862745,0.40893,0.203427,0.889603
-0.0570984,0.0443726,-0.316162,0.6980392156862745,0.3019607843137254,0.0823529411764705,0.404477,0.204302,0.891436
-0.0557556,0.0445251,-0.317139,0.6862745098039216,0.3137254901960784,0.0980392156862745,0.404066,0.203059,0.891907
-0.0542603,0.0445251,-0.317139,0.5764705882352941,0.2352941176470588,0.0235294117647058,0.325364,0.0,0.945589
-0.0529175,0.0446472,-0.318115,0.5607843137254902,0.2549019607843137,0.0862745098039215,0.322264,0.0,0.94665
-0.0513916,0.0446472,-0.318115,0.4862745098039215,0.2627450980392157,0.1372549019607843,0.0,0.0,1.0
-0.166626,0.182495,-1.2998,0.5803921568627451,0.3176470588235294,0.1686274509803921,0.177044,0.818769,0.546143
-0.154785,0.182983,-1.30371,0.8666666666666667,0.8470588235294118,0.8392156862745098,0.216121,0.818592,0.532164
-0.149048,0.183594,-1.30762,0.8823529411764706,0.8666666666666667,0.8313725490196079,0.328582,0.794886,0.510089
-0.143433,0.184448,-1.31348,0.8588235294117647,0.8313725490196079,0.792156862745098,0.483929,0.723545,0.492235
-0.138062,0.185547,-1.32129,0.4274509803921568,0.396078431372549,0.3843137254901961,0.675541,0.596682,0.433145
-0.0725708,0.0431519,-0.318115,0.803921568627451,0.4901960784313725,0.3137254901960784,-0.454766,0.450834,0.768073
-0.0708618,0.0429993,-0.317139,0.8117647058823529,0.4509803921568627,0.2313725490196078,-0.416437,0.424935,0.803748
-0.0690918,0.0428772,-0.316162,0.8235294117647058,0.4666666666666667,0.2274509803921568,-0.420357,0.424603,0.80188
-0.0673828,0.0427246,-0.315186,0.8,0.403921568627451,0.1764705882352941,-0.381897,0.380338,0.842317
-0.0656738,0.0426025,-0.314209,0.796078431372549,0.403921568627451,0.1568627450980392,-0.272719,0.270888,0.923171
-0.064209,0.0426025,-0.314209,0.8,0.4156862745098039,0.1686274509803921,-0.103838,0.101719,0.989379
-0.0626831,0.0426025,-0.314209,0.8,0.4235294117647059,0.1725490196078431,0.0,0.0,1.0
-0.0612183,0.0426025,-0.314209,0.7568627450980392,0.3803921568627451,0.1294117647058823,0.0,0.0,1.0
-0.0597229,0.0426025,-0.314209,0.7450980392156863,0.3490196078431372,0.1215686274509803,0.40893,0.203427,0.889603
-0.0584106,0.0427246,-0.315186,0.7294117647058823,0.3411764705882353,0.1137254901960784,0.509199,0.101015,0.8547
-0.0570984,0.0428772,-0.316162,0.7058823529411765,0.3098039215686274,0.0823529411764705,0.326424,0.0,0.945223
-0.0555725,0.0428772,-0.316162,0.6509803921568628,0.2666666666666666,0.0705882352941176,0.405201,0.203629,0.891262
-0.0542603,0.0429993,-0.317139,0.611764705882353,0.2549019607843137,0.0588235294117647,0.505382,0.0998537,0.857099
-0.0529175,0.0431519,-0.318115,0.5607843137254902,0.2470588235294117,0.0705882352941176,0.42404,-0.106543,0.899354
-0.0513916,0.0431519,-0.318115,0.4980392156862745,0.2313725490196078,0.0941176470588235,0.0,-0.218375,0.975865
-0.165283,0.174805,-1.28809,0.5333333333333333,0.2392156862745098,0.0862745098039215,0.185738,0.808479,0.558447
-0.147705,0.175903,-1.29688,0.8745098039215686,0.8392156862745098,0.803921568627451,0.381417,0.767326,0.515492
-0.142212,0.176636,-1.30273,0.8705882352941177,0.8352941176470589,0.8,0.564801,0.679434,0.468369
-0.137085,0.177979,-1.3125,0.807843137254902,0.7803921568627451,0.7568627450980392,0.731026,0.554036,0.398303
-0.351074,0.0911255,-0.696289,0.2196078431372549,0.192156862745098,0.1686274509803921,-0.325826,0.11217,0.938752
-0.333496,0.0908813,-0.694336,0.1333333333333333,0.1137254901960784,0.1058823529411764,0.0674162,0.344572,0.936336
-0.330811,0.0910034,-0.695312,0.1176470588235294,0.1058823529411764,0.0941176470588235,0.159341,0.15344,0.975227
-0.0723267,0.0415039,-0.317139,0.807843137254902,0.4980392156862745,0.2941176470588235,-0.419827,0.419827,0.804668
-0.0706177,0.0413818,-0.316162,0.8509803921568627,0.5333333333333333,0.3254901960784314,-0.384636,0.376786,0.842667
-0.0689087,0.0412292,-0.315186,0.7686274509803922,0.4117647058823529,0.2156862745098039,-0.466017,0.236958,0.852455
-0.0671997,0.0411072,-0.314209,0.788235294117647,0.4078431372549019,0.1843137254901961,-0.267755,0.273219,0.923936
-0.0656738,0.0411072,-0.314209,0.796078431372549,0.4196078431372549,0.1764705882352941,-0.216891,0.216399,0.951909
-0.064209,0.0411072,-0.314209,0.788235294117647,0.403921568627451,0.1568627450980392,0.0,0.365088,0.930973
-0.0626831,0.0411072,-0.314209,0.7568627450980392,0.3686274509803922,0.1019607843137254,0.129358,0.258717,0.957252
-0.0612183,0.0411072,-0.314209,0.7372549019607844,0.3372549019607843,0.0862745098039215,0.0,0.0,1.0
-0.0597229,0.0411072,-0.314209,0.7450980392156863,0.3450980392156862,0.1019607843137254,0.328521,0.0,0.944497
-0.0584106,0.0412292,-0.315186,0.7019607843137254,0.3176470588235294,0.0784313725490196,0.508552,0.10171,0.855003
-0.0570984,0.0413818,-0.316162,0.6941176470588235,0.3058823529411765,0.0784313725490196,0.404043,0.203047,0.89192
-0.0555725,0.0413818,-0.316162,0.6588235294117647,0.2862745098039215,0.0862745098039215,0.326417,0.0,0.945226
-0.0542603,0.0415039,-0.317139,0.6235294117647059,0.2666666666666666,0.0784313725490196,0.592567,0.0,0.805521
-0.0529175,0.041626,-0.318115,0.5686274509803921,0.2509803921568627,0.0862745098039215,0.583809,0.0,0.811891
-0.0515442,0.0417786,-0.319092,0.4941176470588235,0.2274509803921568,0.0980392156862745,0.418874,-0.209437,0.883562
-0.164062,0.16748,-1.2793,0.5372549019607843,0.2549019607843137,0.1058823529411764,0.0872109,0.771218,0.630569
-0.152222,0.167847,-1.28223,0.9019607843137256,0.8666666666666667,0.8392156862745098,0.238319,0.789629,0.565411
-0.146606,0.168335,-1.28613,0.8784313725490196,0.8431372549019608,0.807843137254902,0.442367,0.737852,0.509791
-0.141235,0.169312,-1.29395,0.8745098039215686,0.8392156862745098,0.803921568627451,0.640208,0.626001,0.445259
-0.13623,0.170776,-1.30469,0.9098039215686274,0.8823529411764706,0.8431372549019608,0.779377,0.49903,0.378867
-0.35498,0.0879517,-0.697266,0.3098039215686274,0.2901960784313726,0.2823529411764706,-0.383874,0.10719,0.917143
-0.351074,0.0878296,-0.696289,0.2313725490196078,0.2117647058823529,0.196078431372549,-0.326046,0.112476,0.938639
-0.0738525,0.039978,-0.317139,0.7764705882352941,0.4666666666666667,0.3450980392156862,-0.481615,0.156199,0.862351
-0.0721436,0.039856,-0.316162,0.8,0.4588235294117647,0.2392156862745098,-0.461005,0.235935,0.855459
-0.0703735,0.0397339,-0.315186,0.7764705882352941,0.4235294117647059,0.2,-0.3328,0.329439,0.88358
-0.0689087,0.0397339,-0.315186,0.796078431372549,0.4235294117647059,0.2078431372549019,-0.273159,0.267585,0.924003
-0.0671997,0.0396118,-0.314209,0.8117647058823529,0.4274509803921568,0.1803921568627451,-0.38043,0.114175,0.917735
-0.0656738,0.0396118,-0.314209,0.7843137254901961,0.396078431372549,0.1215686274509803,-0.235326,0.240129,0.941785
-0.0639648,0.0394897,-0.312988,0.7725490196078432,0.3764705882352941,0.0980392156862745,-0.241447,0.236519,0.941149
-0.0625,0.0394897,-0.312988,0.8,0.403921568627451,0.1411764705882353,0.232185,0.462002,0.855947
-0.0612183,0.0396118,-0.314209,0.7607843137254902,0.3686274509803922,0.1137254901960784,0.363113,0.360642,0.859119
-0.0597229,0.0396118,-0.314209,0.7215686274509804,0.3372549019607843,0.0901960784313725,0.217085,0.108543,0.970099
-0.0584106,0.0397339,-0.315186,0.7019607843137254,0.3098039215686274,0.0627450980392156,0.409374,0.204687,0.88911
-0.0569153,0.0397339,-0.315186,0.6392156862745098,0.2509803921568627,0.0235294117647058,0.405201,0.203629,0.891262
-0.0555725,0.039856,-0.316162,0.6627450980392157,0.2901960784313726,0.0823529411764705,0.504834,0.102193,0.857146
-0.0542603,0.039978,-0.317139,0.6274509803921569,0.2705882352941176,0.0823529411764705,0.592567,0.0,0.805521
-0.0529175,0.0401306,-0.318115,0.5843137254901961,0.2705882352941176,0.0862745098039215,0.654589,-0.0959312,0.749874
-0.0515442,0.0402527,-0.319092,0.5294117647058824,0.2470588235294117,0.1058823529411764,0.566031,-0.343256,0.749523
-0.0502014,0.0403748,-0.320068,0.796078431372549,0.6509803921568628,0.5882352941176471,0.53231,-0.521664,0.666718
-0.151245,0.160645,-1.27344,0.7019607843137254,0.6823529411764706,0.6666666666666666,0.275704,0.728471,0.62715
-0.140381,0.162109,-1.28516,0.8588235294117647,0.8313725490196079,0.8,0.713415,0.550157,0.434012
-0.135376,0.163452,-1.29688,0.8627450980392157,0.8274509803921568,0.792156862745098,0.813768,0.453266,0.363775
-0.363525,0.085144,-0.70166,0.3803921568627451,0.3686274509803922,0.3568627450980392,-0.465746,0.0,0.884918
-0.359131,0.0848999,-0.699707,0.4470588235294118,0.4274509803921568,0.4117647058823529,-0.457503,0.0,0.889208
-0.350586,0.0844116,-0.695312,0.2117647058823529,0.192156862745098,0.1764705882352941,-0.33282,0.0,0.94299
-0.34668,0.0842896,-0.694336,0.3843137254901961,0.3686274509803922,0.3411764705882353,-0.281056,0.0416379,0.958788
-0.343018,0.0841675,-0.693359,0.2627450980392157,0.2509803921568627,0.2313725490196078,-0.211667,0.0846668,0.973668
-0.339111,0.0840454,-0.692383,0.2431372549019607,0.2313725490196078,0.2117647058823529,-0.133111,0.134754,0.981898
-0.0738525,0.0384827,-0.317139,0.8,0.5137254901960784,0.3843137254901961,-0.40302,0.0,0.915191
-0.0721436,0.0383606,-0.316162,0.7764705882352941,0.4352941176470588,0.2156862745098039,-0.489535,0.0,0.871984
-0.0703735,0.0382385,-0.315186,0.8431372549019608,0.4901960784313725,0.2666666666666666,-0.489535,0.0,0.871984
-0.0686646,0.0381165,-0.314209,0.788235294117647,0.4274509803921568,0.2156862745098039,-0.292972,0.286993,0.912032
-0.0671997,0.0381165,-0.314209,0.7686274509803922,0.388235294117647,0.1568627450980392,-0.311353,0.304999,0.900019
-0.0654907,0.0379944,-0.312988,0.7647058823529411,0.3764705882352941,0.1098039215686274,-0.235326,0.240129,0.941785
-0.0639648,0.0379944,-0.312988,0.7647058823529411,0.3803921568627451,0.1254901960784313,-0.12928,0.131919,0.982794
-0.0625,0.0379944,-0.312988,0.7490196078431373,0.3647058823529411,0.1254901960784313,0.0,0.0,1.0
-0.0610046,0.0379944,-0.312988,0.7294117647058823,0.3450980392156862,0.1058823529411764,0.488961,0.24448,0.837345
-0.0597229,0.0381165,-0.314209,0.7098039215686275,0.3098039215686274,0.0588235294117647,0.26868,0.13434,0.953815
-0.0582275,0.0381165,-0.314209,0.7254901960784313,0.3411764705882353,0.0941176470588235,0.409374,0.204687,0.88911
-0.0569153,0.0382385,-0.315186,0.6549019607843137,0.2666666666666666,0.0470588235294117,0.5058,0.10116,0.856699
-0.0555725,0.0383606,-0.316162,0.6588235294117647,0.2980392156862745,0.0941176470588235,0.592567,0.0,0.805521
-0.0542603,0.0384827,-0.317139,0.6196078431372549,0.2784313725490196,0.0862745098039215,0.592552,0.0,0.805532
-0.0529175,0.0386047,-0.318115,0.5686274509803921,0.2549019607843137,0.0784313725490196,0.756894,0.0,0.653538
-0.0517273,0.0388489,-0.320068,0.5254901960784314,0.2313725490196078,0.0941176470588235,0.704037,-0.179529,0.687096
-0.150391,0.153687,-1.2666,0.7215686274509804,0.7098039215686275,0.6901960784313725,0.349383,0.680337,0.644261
-0.139648,0.155151,-1.27832,0.8313725490196079,0.8117647058823529,0.796078431372549,0.744967,0.503072,0.438113
-0.134766,0.156616,-1.29102,0.8509803921568627,0.8352941176470589,0.8,0.83664,0.420147,0.351441
-0.130005,0.158325,-1.30469,0.2588235294117647,0.2313725490196078,0.2078431372549019,0.868169,0.375276,0.324732
-0.419189,0.0863647,-0.740723,0.0784313725490196,0.0666666666666666,0.0549019607843137,-0.609648,-0.12214,0.783206
-0.363525,0.0817871,-0.70166,0.396078431372549,0.3764705882352941,0.3686274509803922,-0.471556,-0.0894924,0.877283
-0.359131,0.081543,-0.699707,0.3058823529411765,0.2941176470588235,0.2745098039215686,-0.45579,-0.0857519,0.885947
-0.35498,0.0812988,-0.697266,0.2666666666666666,0.2470588235294117,0.2313725490196078,-0.416492,-0.0691936,0.906502
-0.351074,0.0811768,-0.696289,0.2509803921568627,0.2392156862745098,0.2274509803921568,-0.334621,-0.114494,0.935372
-0.339111,0.0807495,-0.692383,0.388235294117647,0.3725490196078431,0.3450980392156862,-0.178174,-0.0890871,0.979958
-0.335938,0.0807495,-0.692383,0.3176470588235294,0.3019607843137254,0.2666666666666666,-0.0941611,-0.0488243,0.994359
-0.332031,0.0806274,-0.691406,0.396078431372549,0.388235294117647,0.3490196078431372,-0.171341,0.0,0.985212
-0.0738525,0.0369873,-0.317139,0.7568627450980392,0.4705882352941176,0.3411764705882353,-0.434212,-0.0875427,0.896547
-0.0721436,0.0368652,-0.316162,0.7686274509803922,0.4392156862745098,0.2431372549019607,-0.489535,0.0,0.871984
-0.0703735,0.0367432,-0.315186,0.7333333333333333,0.3607843137254902,0.1450980392156863,-0.489535,0.0,0.871984
-0.0686646,0.0366211,-0.314209,0.803921568627451,0.4196078431372549,0.2156862745098039,-0.540758,0.0,0.841178
-0.0669556,0.036499,-0.312988,0.7843137254901961,0.4235294117647059,0.2117647058823529,-0.241447,0.236519,0.941149
-0.0654907,0.036499,-0.312988,0.7607843137254902,0.3843137254901961,0.1411764705882353,-0.128617,0.125992,0.983658
-0.0639648,0.036499,-0.312988,0.7450980392156863,0.3607843137254902,0.1058823529411764,0.0,0.0,1.0
-0.0625,0.036499,-0.312988,0.7568627450980392,0.3803921568627451,0.1372549019607843,0.0,0.0,1.0
-0.0610046,0.036499,-0.312988,0.7176470588235294,0.3411764705882353,0.0901960784313725,0.26868,0.13434,0.953815
-0.0597229,0.0366211,-0.314209,0.6901960784313725,0.2901960784313726,0.0470588235294117,0.488961,0.24448,0.837345
-0.0582275,0.0366211,-0.314209,0.7176470588235294,0.3215686274509804,0.0941176470588235,0.328521,0.0,0.944497
-0.0569153,0.0367432,-0.315186,0.6823529411764706,0.2941176470588235,0.0745098039215686,0.592552,0.0,0.805532
-0.0555725,0.0368652,-0.316162,0.6509803921568628,0.2666666666666666,0.0549019607843137,0.592582,0.0,0.80551
-0.0542603,0.0369873,-0.317139,0.6352941176470588,0.3019607843137254,0.1254901960784313,0.592567,0.0,0.805521
-0.0529175,0.0370789,-0.318115,0.5647058823529412,0.2627450980392157,0.0823529411764705,0.756897,0.0,0.653534
-0.0517273,0.037323,-0.320068,0.5137254901960784,0.2313725490196078,0.0745098039215686,0.752577,0.0,0.658505
-0.0491333,0.0376892,-0.323242,0.7098039215686275,0.6980392156862745,0.6862745098039216,0.774139,0.416844,0.476393
-0.134033,0.149658,-1.2832,0.8509803921568627,0.8392156862745098,0.8196078431372549,0.85181,0.391042,0.348576
-0.129395,0.151367,-1.29883,0.4509803921568627,0.4352941176470588,0.4078431372549019,0.876427,0.3603,0.319467
-0.335938,0.0774536,-0.692383,0.2862745098039215,0.2431372549019607,0.2156862745098039,-0.094222,-0.188444,0.977554
-0.0738525,0.0354614,-0.317139,0.7647058823529411,0.4941176470588235,0.3764705882352941,-0.583618,-0.0738756,0.808661
-0.0721436,0.0353394,-0.316162,0.6862745098039216,0.3803921568627451,0.2117647058823529,-0.489557,0.0,0.871971
-0.0703735,0.0352478,-0.315186,0.7411764705882353,0.4117647058823529,0.2156862745098039,-0.489513,0.0,0.871996
-0.0686646,0.0351257,-0.314209,0.7568627450980392,0.4156862745098039,0.2156862745098039,-0.540612,0.0,0.841272
-0.0669556,0.0350037,-0.312988,0.803921568627451,0.4313725490196078,0.2156862745098039,-0.35997,0.0,0.932964
-0.0654907,0.0350037,-0.312988,0.7568627450980392,0.3803921568627451,0.1372549019607843,0.0,0.0,1.0
-0.0639648,0.0350037,-0.312988,0.8235294117647058,0.4313725490196078,0.1843137254901961,0.0,0.0,1.0
-0.0625,0.0350037,-0.312988,0.7529411764705882,0.3333333333333333,0.0784313725490196,0.0,0.0,1.0
-0.0610046,0.0350037,-0.312988,0.7333333333333333,0.3372549019607843,0.0745098039215686,0.0,0.0,1.0
-0.0595093,0.0350037,-0.312988,0.7058823529411765,0.3137254901960784,0.0588235294117647,0.489388,0.245949,0.836665
-0.0582275,0.0351257,-0.314209,0.6980392156862745,0.3137254901960784,0.0666666666666666,0.547514,0.124435,0.827493
-0.0569153,0.0352478,-0.315186,0.6980392156862745,0.3058823529411765,0.0588235294117647,0.592567,0.0,0.805521
-0.0555725,0.0353394,-0.316162,0.6745098039215687,0.2941176470588235,0.0705882352941176,0.592567,0.0,0.805521
-0.0542603,0.0354614,-0.317139,0.592156862745098,0.2509803921568627,0.0509803921568627,0.592567,0.0,0.805521
-0.0529175,0.0355835,-0.318115,0.5607843137254902,0.2588235294117647,0.0784313725490196,0.756469,0.0,0.65403
-0.0517273,0.0357971,-0.320068,0.5294117647058824,0.2470588235294117,0.0980392156862745,0.752135,0.0,0.65901
-0.050354,0.0359192,-0.321045,0.4431372549019607,0.2,0.0901960784313725,0.579524,0.0,0.814955
-0.0489807,0.0360107,-0.322021,0.6745098039215687,0.6549019607843137,0.6392156862745098,0.697905,0.199985,0.687702
-0.148926,0.140259,-1.25488,0.7176470588235294,0.6980392156862745,0.6823529411764706,0.550396,0.550396,0.627796
-0.128906,0.144531,-1.29297,0.8392156862745098,0.8274509803921568,0.807843137254902,0.882721,0.348437,0.315271
-0.340088,0.0743408,-0.694336,0.1215686274509803,0.1019607843137254,0.0941176470588235,-0.247727,-0.247727,0.936623
-0.336426,0.0742798,-0.693359,0.2549019607843137,0.2352941176470588,0.2196078431372549,-0.134628,-0.269255,0.953613
-0.333008,0.0742798,-0.693359,0.1764705882352941,0.1490196078431372,0.1254901960784313,0.0,-0.292373,0.956304
-0.088623,0.0350342,-0.327148,0.7803921568627451,0.7607843137254902,0.7529411764705882,0.219839,0.0,0.975536
-0.0738525,0.0339661,-0.317139,0.7294117647058823,0.4470588235294118,0.2980392156862745,-0.61839,0.0,0.785871
-0.0721436,0.033844,-0.316162,0.7686274509803922,0.4470588235294118,0.2666666666666666,-0.489513,0.0,0.871996
-0.0703735,0.0337524,-0.315186,0.796078431372549,0.4941176470588235,0.3058823529411765,-0.489535,0.0,0.871984
-0.0686646,0.0336304,-0.314209,0.7686274509803922,0.4117647058823529,0.2156862745098039,-0.540758,0.0,0.841178
-0.0669556,0.0335388,-0.312988,0.7333333333333333,0.3411764705882353,0.1019607843137254,-0.358979,0.0,0.933346
-0.0654907,0.0335388,-0.312988,0.7607843137254902,0.3686274509803922,0.1137254901960784,0.0,0.0,1.0
-0.0639648,0.0335388,-0.312988,0.7607843137254902,0.3647058823529411,0.1019607843137254,0.0,0.0,1.0
-0.0625,0.0335388,-0.312988,0.7490196078431373,0.3529411764705882,0.0745098039215686,0.0,0.0,1.0
-0.0610046,0.0335388,-0.312988,0.7372549019607844,0.3294117647058823,0.0627450980392156,0.0,0.0,1.0
-0.0595093,0.0335388,-0.312988,0.7098039215686275,0.3137254901960784,0.0509803921568627,0.403649,0.0,0.914914
-0.0582275,0.0336304,-0.314209,0.7176470588235294,0.3372549019607843,0.1137254901960784,0.56707,0.0990604,0.817691
-0.0569153,0.0337524,-0.315186,0.6941176470588235,0.3098039215686274,0.0705882352941176,0.554982,0.279366,0.783549
