X,Y,Z,R,G,B,nX,nY,nZ
2.209469999999999837e-02,-1.067499999999999977e-01,-2.108150000000000024e-01,5.098039215686274161e-01,5.058823529411764497e-01,5.137254901960783826e-01,9.072249999999999759e-02,9.944450000000000234e-01,5.336620000000000252e-02
2.310179999999999872e-02,-1.067499999999999977e-01,-2.108150000000000024e-01,5.137254901960783826e-01,5.098039215686274161e-01,5.176470588235294601e-01,-3.254739999999999855e-01,8.026410000000000489e-01,4.998340000000000005e-01
2.398679999999999909e-02,-1.062619999999999953e-01,-2.097169999999999868e-01,5.137254901960783826e-01,5.098039215686274161e-01,5.176470588235294601e-01,-5.139280000000000515e-01,5.299880000000000146e-01,6.745299999999999629e-01
2.499389999999999945e-02,-1.062619999999999953e-01,-2.097169999999999868e-01,5.137254901960783826e-01,5.098039215686274161e-01,5.176470588235294601e-01,-1.905759999999999954e-01,7.153199999999999559e-01,6.723080000000000167e-01
2.598570000000000046e-02,-1.062619999999999953e-01,-2.097169999999999868e-01,5.137254901960783826e-01,5.098039215686274161e-01,5.176470588235294601e-01,1.701680000000000137e-01,8.115489999999999648e-01,5.589549999999999796e-01
2.770999999999999852e-02,-1.052249999999999991e-01,-2.077640000000000042e-01,5.137254901960783826e-01,5.098039215686274161e-01,5.176470588235294601e-01,-5.302369999999999584e-01,8.386770000000000058e-01,1.243739999999999984e-01
2.870179999999999954e-02,-1.052249999999999991e-01,-2.077640000000000042e-01,5.137254901960783826e-01,5.098039215686274161e-01,5.176470588235294601e-01,-1.406290000000000040e-01,9.409729999999999484e-01,3.078839999999999910e-01
2.969360000000000055e-02,-1.052249999999999991e-01,-2.077640000000000042e-01,5.137254901960783826e-01,5.098039215686274161e-01,5.176470588235294601e-01,0.000000000000000000e+00,8.944269999999999721e-01,4.472140000000000004e-01
3.068540000000000156e-02,-1.052249999999999991e-01,-2.077640000000000042e-01,5.215686274509804266e-01,5.058823529411764497e-01,5.176470588235294601e-01,1.255239999999999967e-01,9.617320000000000313e-01,2.435479999999999867e-01
3.167720000000000258e-02,-1.052249999999999991e-01,-2.077640000000000042e-01,5.058823529411764497e-01,5.058823529411764497e-01,5.137254901960783826e-01,0.000000000000000000e+00,9.897040000000000282e-01,1.431290000000000062e-01
3.265379999999999672e-02,-1.052249999999999991e-01,-2.077640000000000042e-01,5.137254901960783826e-01,5.098039215686274161e-01,5.098039215686274161e-01,2.048580000000000123e-01,9.730750000000000233e-01,1.056300000000000017e-01
3.381350000000000328e-02,-1.057740000000000069e-01,-2.087400000000000089e-01,5.058823529411764497e-01,5.019607843137254832e-01,5.019607843137254832e-01,0.000000000000000000e+00,9.897029999999999994e-01,1.431350000000000122e-01
3.463750000000000162e-02,-1.052249999999999991e-01,-2.077640000000000042e-01,5.058823529411764497e-01,5.058823529411764497e-01,5.137254901960783826e-01,-4.390470000000000206e-01,8.307459999999999845e-01,3.421980000000000022e-01
3.561399999999999982e-02,-1.052249999999999991e-01,-2.077640000000000042e-01,5.058823529411764497e-01,5.019607843137254832e-01,5.098039215686274161e-01,2.002110000000000001e-01,9.727149999999999963e-01,1.172190000000000037e-01
3.659060000000000090e-02,-1.052249999999999991e-01,-2.077640000000000042e-01,4.901960784313724728e-01,4.901960784313724728e-01,4.980392156862745168e-01,0.000000000000000000e+00,9.998650000000000038e-01,-1.642679999999999835e-02
4.214480000000000309e-02,-1.067499999999999977e-01,-2.108150000000000024e-01,4.666666666666666741e-01,4.784313725490195734e-01,4.823529411764705954e-01,5.333360000000000323e-01,7.322389999999999732e-01,4.235320000000000196e-01
4.315189999999999998e-02,-1.067499999999999977e-01,-2.108150000000000024e-01,4.745098039215686070e-01,4.745098039215686070e-01,4.823529411764705954e-01,0.000000000000000000e+00,9.871520000000000294e-01,1.597840000000000094e-01
4.940800000000000053e-02,-1.073000000000000065e-01,-2.117920000000000080e-01,4.470588235294117863e-01,4.588235294117646856e-01,4.627450980392157076e-01,-4.949890000000000123e-01,8.475770000000000248e-01,1.913080000000000058e-01
4.992680000000000035e-02,-1.062619999999999953e-01,-2.097169999999999868e-01,4.627450980392157076e-01,4.627450980392157076e-01,4.705882352941175850e-01,-3.294150000000000134e-01,9.414590000000000458e-01,7.170300000000000284e-02
5.117800000000000127e-02,-1.067499999999999977e-01,-2.108150000000000024e-01,4.588235294117646856e-01,4.588235294117646856e-01,4.588235294117646856e-01,-6.836759999999999504e-01,7.153859999999999664e-01,-1.442539999999999933e-01
5.368040000000000311e-02,-1.057740000000000069e-01,-2.087400000000000089e-01,4.588235294117646856e-01,4.549019607843137192e-01,4.549019607843137192e-01,-1.138919999999999932e-01,9.919019999999999504e-01,5.620159999999999739e-02
5.413819999999999744e-02,-1.047359999999999958e-01,-2.067869999999999986e-01,4.627450980392157076e-01,4.588235294117646856e-01,4.588235294117646856e-01,-3.406600000000000183e-01,8.065620000000000012e-01,4.831230000000000246e-01
5.538939999999999836e-02,-1.052249999999999991e-01,-2.077640000000000042e-01,4.588235294117646856e-01,4.588235294117646856e-01,4.588235294117646856e-01,5.148530000000000051e-01,6.279649999999999954e-01,5.835979999999999501e-01
5.664059999999999928e-02,-1.057740000000000069e-01,-2.087400000000000089e-01,4.392156862745097978e-01,4.627450980392157076e-01,4.549019607843137192e-01,1.465039999999999953e-01,-1.421949999999999881e-01,9.789369999999999461e-01
5.737300000000000039e-02,-1.052249999999999991e-01,-2.077640000000000042e-01,4.392156862745097978e-01,4.627450980392157076e-01,4.549019607843137192e-01,-2.671229999999999993e-01,-2.754699999999999926e-01,9.234510000000000218e-01
5.963129999999999820e-02,-1.057740000000000069e-01,-2.087400000000000089e-01,4.549019607843137192e-01,4.666666666666666741e-01,4.705882352941175850e-01,-3.154069999999999929e-01,8.812839999999999563e-01,3.519340000000000246e-01
6.060789999999999927e-02,-1.057740000000000069e-01,-2.087400000000000089e-01,4.470588235294117863e-01,4.588235294117646856e-01,4.627450980392157076e-01,1.284540000000000126e-01,9.558710000000000262e-01,2.642160000000000064e-01
6.192020000000000163e-02,-1.062619999999999953e-01,-2.097169999999999868e-01,4.470588235294117863e-01,4.588235294117646856e-01,4.627450980392157076e-01,5.963709999999999845e-01,7.667620000000000546e-01,2.375240000000000129e-01
9.014890000000000403e-02,-1.077879999999999949e-01,-2.127690000000000137e-01,4.235294117647058765e-01,4.470588235294117863e-01,4.470588235294117863e-01,0.000000000000000000e+00,8.944269999999999721e-01,4.472140000000000004e-01
9.112549999999999817e-02,-1.077879999999999949e-01,-2.127690000000000137e-01,4.196078431372549100e-01,4.509803921568626972e-01,4.470588235294117863e-01,-2.280210000000000015e-01,6.706490000000000506e-01,7.058579999999999854e-01
9.216309999999999780e-02,-1.077879999999999949e-01,-2.127690000000000137e-01,4.039215686274509887e-01,4.470588235294117863e-01,4.392156862745097978e-01,-4.311679999999999957e-01,8.612579999999999680e-01,2.689409999999999856e-01
9.313960000000000294e-02,-1.077879999999999949e-01,-2.127690000000000137e-01,4.000000000000000222e-01,4.431372549019607088e-01,4.352941176470587759e-01,-1.752879999999999994e-01,9.840010000000000145e-01,-3.187050000000000299e-02
9.375000000000000000e-02,-1.073000000000000065e-01,-2.117920000000000080e-01,4.117647058823529216e-01,4.431372549019607088e-01,4.392156862745097978e-01,-7.129610000000000114e-02,9.953600000000000225e-01,-6.461210000000000564e-02
9.521480000000000221e-02,-1.077879999999999949e-01,-2.127690000000000137e-01,4.313725490196078094e-01,4.431372549019607088e-01,4.470588235294117863e-01,1.799000000000000044e-01,9.669640000000000457e-01,1.806030000000000135e-01
9.539789999999999381e-02,-1.057740000000000069e-01,-2.087400000000000089e-01,4.196078431372549100e-01,4.431372549019607088e-01,4.509803921568626972e-01,4.038039999999999963e-01,8.328449999999999465e-01,3.785660000000000136e-01
9.637450000000000183e-02,-1.057740000000000069e-01,-2.087400000000000089e-01,4.313725490196078094e-01,4.549019607843137192e-01,4.549019607843137192e-01,-1.888279999999999959e-01,7.553109999999999546e-01,6.275739999999999652e-01
9.735109999999999597e-02,-1.057740000000000069e-01,-2.087400000000000089e-01,4.235294117647058765e-01,4.470588235294117863e-01,4.549019607843137192e-01,-5.789910000000000334e-01,5.674109999999999987e-01,5.855040000000000244e-01
9.790039999999999853e-02,-1.052249999999999991e-01,-2.077640000000000042e-01,4.196078431372549100e-01,4.431372549019607088e-01,4.509803921568626972e-01,-6.839610000000000412e-01,6.437279999999999669e-01,3.432379999999999876e-01
9.887700000000000655e-02,-1.052249999999999991e-01,-2.077640000000000042e-01,4.274509803921567874e-01,4.392156862745097978e-01,4.509803921568626972e-01,0.000000000000000000e+00,8.944269999999999721e-01,4.472140000000000004e-01
9.985349999999999782e-02,-1.052249999999999991e-01,-2.077640000000000042e-01,4.313725490196078094e-01,4.431372549019607088e-01,4.549019607843137192e-01,2.620350000000000179e-01,8.631739999999999968e-01,4.315869999999999984e-01
1.013180000000000053e-01,-1.057740000000000069e-01,-2.087400000000000089e-01,4.274509803921567874e-01,4.392156862745097978e-01,4.509803921568626972e-01,5.603019999999999667e-01,6.773799999999999821e-01,4.766750000000000154e-01
1.028440000000000049e-01,-1.062619999999999953e-01,-2.097169999999999868e-01,4.274509803921567874e-01,4.274509803921567874e-01,4.431372549019607088e-01,2.623070000000000124e-01,8.197109999999999674e-01,5.091849999999999987e-01
1.033329999999999943e-01,-1.057740000000000069e-01,-2.087400000000000089e-01,4.235294117647058765e-01,4.352941176470587759e-01,4.392156862745097978e-01,-9.438159999999999258e-03,9.532540000000000457e-01,3.020209999999999839e-01
1.043089999999999989e-01,-1.057740000000000069e-01,-2.087400000000000089e-01,4.196078431372549100e-01,4.431372549019607088e-01,4.352941176470587759e-01,2.372910000000000019e-01,8.790569999999999773e-01,4.134619999999999962e-01
1.249389999999999945e-01,-1.073000000000000065e-01,-2.117920000000000080e-01,4.313725490196078094e-01,4.313725490196078094e-01,4.470588235294117863e-01,-4.691130000000000022e-01,8.814119999999999733e-01,-5.518970000000000126e-02
-1.424559999999999993e-01,-1.041870000000000018e-01,-2.037349999999999994e-01,5.450980392156862253e-01,5.411764705882352589e-01,5.411764705882352589e-01,1.327419999999999989e-01,9.838529999999999776e-01,1.200530000000000069e-01
-1.414789999999999937e-01,-1.041870000000000018e-01,-2.037349999999999994e-01,5.411764705882352589e-01,5.450980392156862253e-01,5.215686274509804266e-01,0.000000000000000000e+00,9.922779999999999934e-01,1.240350000000000064e-01
-1.405029999999999890e-01,-1.041870000000000018e-01,-2.037349999999999994e-01,5.372549019607842924e-01,5.411764705882352589e-01,5.254901960784313930e-01,-1.363139999999999907e-01,9.141040000000000276e-01,3.818790000000000240e-01
-1.395260000000000111e-01,-1.041870000000000018e-01,-2.037349999999999994e-01,5.450980392156862253e-01,5.450980392156862253e-01,5.294117647058823595e-01,0.000000000000000000e+00,9.054590000000000138e-01,4.244339999999999780e-01
-1.385500000000000065e-01,-1.041870000000000018e-01,-2.037349999999999994e-01,5.450980392156862253e-01,5.333333333333333259e-01,5.215686274509804266e-01,0.000000000000000000e+00,9.054590000000000138e-01,4.244339999999999780e-01
-1.375730000000000008e-01,-1.041870000000000018e-01,-2.037349999999999994e-01,5.450980392156862253e-01,5.333333333333333259e-01,5.215686274509804266e-01,0.000000000000000000e+00,9.054590000000000138e-01,4.244339999999999780e-01
-1.365969999999999962e-01,-1.041870000000000018e-01,-2.037349999999999994e-01,5.333333333333333259e-01,5.333333333333333259e-01,5.098039215686274161e-01,1.349239999999999884e-01,9.841499999999999693e-01,1.150820000000000037e-01
-1.356199999999999906e-01,-1.041870000000000018e-01,-2.037349999999999994e-01,5.333333333333333259e-01,5.333333333333333259e-01,5.098039215686274161e-01,0.000000000000000000e+00,9.922779999999999934e-01,1.240350000000000064e-01
-1.346440000000000137e-01,-1.041870000000000018e-01,-2.037349999999999994e-01,5.333333333333333259e-01,5.333333333333333259e-01,5.176470588235294601e-01,-2.267959999999999976e-01,9.071860000000000479e-01,3.543689999999999896e-01
-1.336670000000000080e-01,-1.041870000000000018e-01,-2.037349999999999994e-01,5.215686274509804266e-01,5.215686274509804266e-01,4.980392156862745168e-01,1.169430000000000053e-01,9.823220000000000285e-01,1.461790000000000034e-01
-1.326900000000000024e-01,-1.041870000000000018e-01,-2.037349999999999994e-01,5.215686274509804266e-01,5.254901960784313930e-01,5.019607843137254832e-01,0.000000000000000000e+00,9.054590000000000138e-01,4.244339999999999780e-01
-1.317139999999999977e-01,-1.041870000000000018e-01,-2.037349999999999994e-01,5.058823529411764497e-01,5.294117647058823595e-01,5.215686274509804266e-01,0.000000000000000000e+00,9.054590000000000138e-01,4.244339999999999780e-01
-1.307369999999999921e-01,-1.041870000000000018e-01,-2.037349999999999994e-01,5.058823529411764497e-01,5.333333333333333259e-01,5.098039215686274161e-01,0.000000000000000000e+00,9.054590000000000138e-01,4.244339999999999780e-01
-1.297609999999999875e-01,-1.041870000000000018e-01,-2.037349999999999994e-01,5.254901960784313930e-01,5.411764705882352589e-01,5.215686274509804266e-01,0.000000000000000000e+00,9.054590000000000138e-01,4.244339999999999780e-01
-1.287840000000000096e-01,-1.041870000000000018e-01,-2.037349999999999994e-01,5.372549019607842924e-01,5.372549019607842924e-01,5.215686274509804266e-01,-1.228039999999999965e-01,9.169359999999999733e-01,3.796689999999999787e-01
-1.278080000000000049e-01,-1.041870000000000018e-01,-2.037349999999999994e-01,5.411764705882352589e-01,5.294117647058823595e-01,5.176470588235294601e-01,-2.417789999999999939e-01,8.960059999999999691e-01,3.724469999999999725e-01
-1.262209999999999999e-01,-1.036379999999999940e-01,-2.027589999999999948e-01,5.333333333333333259e-01,5.333333333333333259e-01,5.176470588235294601e-01,1.227020000000000055e-01,9.816129999999999578e-01,1.462189999999999879e-01
-1.259770000000000056e-01,-1.041870000000000018e-01,-2.037349999999999994e-01,5.333333333333333259e-01,5.372549019607842924e-01,5.215686274509804266e-01,-1.354360000000000008e-01,9.141960000000000086e-01,3.819730000000000070e-01
-1.243900000000000006e-01,-1.036379999999999940e-01,-2.027589999999999948e-01,5.294117647058823595e-01,5.333333333333333259e-01,5.176470588235294601e-01,-4.781730000000000147e-01,7.489449999999999719e-01,4.587289999999999979e-01
-1.228029999999999955e-01,-1.031490000000000046e-01,-2.017819999999999891e-01,5.137254901960783826e-01,5.137254901960783826e-01,4.980392156862745168e-01,-1.120030000000000053e-01,9.929510000000000280e-01,-3.877030000000000060e-02
-1.245119999999999977e-01,-1.062619999999999953e-01,-2.077640000000000042e-01,5.333333333333333259e-01,5.333333333333333259e-01,5.098039215686274161e-01,0.000000000000000000e+00,0.000000000000000000e+00,0.000000000000000000e+00
-1.132200000000000012e-01,-1.031490000000000046e-01,-2.017819999999999891e-01,5.450980392156862253e-01,5.294117647058823595e-01,5.333333333333333259e-01,-3.710919999999999774e-01,9.087250000000000050e-01,1.910739999999999938e-01
-1.127930000000000044e-01,-1.036379999999999940e-01,-2.027589999999999948e-01,5.254901960784313930e-01,5.215686274509804266e-01,5.215686274509804266e-01,6.755210000000000381e-01,6.755210000000000381e-01,2.955400000000000249e-01
-1.118159999999999987e-01,-1.036379999999999940e-01,-2.027589999999999948e-01,5.411764705882352589e-01,5.294117647058823595e-01,5.098039215686274161e-01,8.133799999999999919e-01,-2.768950000000000022e-01,5.116070000000000340e-01
-1.113890000000000019e-01,-1.041870000000000018e-01,-2.037349999999999994e-01,5.372549019607842924e-01,5.215686274509804266e-01,4.941176470588234948e-01,1.935070000000000123e-01,-5.934220000000000050e-01,7.812850000000000072e-01
-1.104740000000000028e-01,-1.041870000000000018e-01,-2.037349999999999994e-01,5.450980392156862253e-01,5.333333333333333259e-01,5.137254901960783826e-01,0.000000000000000000e+00,-2.653619999999999868e-01,9.641490000000000338e-01
-1.100460000000000049e-01,-1.046750000000000042e-01,-2.047120000000000051e-01,5.254901960784313930e-01,5.254901960784313930e-01,5.098039215686274161e-01,2.300790000000000057e-01,9.203160000000000229e-01,3.163590000000000013e-01
-1.090700000000000003e-01,-1.046750000000000042e-01,-2.047120000000000051e-01,5.372549019607842924e-01,5.411764705882352589e-01,5.254901960784313930e-01,0.000000000000000000e+00,9.054590000000000138e-01,4.244339999999999780e-01
-1.080929999999999946e-01,-1.046750000000000042e-01,-2.047120000000000051e-01,5.372549019607842924e-01,5.372549019607842924e-01,5.372549019607842924e-01,0.000000000000000000e+00,9.054590000000000138e-01,4.244339999999999780e-01
-1.071170000000000039e-01,-1.046750000000000042e-01,-2.047120000000000051e-01,5.372549019607842924e-01,5.333333333333333259e-01,5.333333333333333259e-01,0.000000000000000000e+00,9.054590000000000138e-01,4.244339999999999780e-01
-1.061399999999999982e-01,-1.046750000000000042e-01,-2.047120000000000051e-01,5.411764705882352589e-01,5.372549019607842924e-01,5.372549019607842924e-01,0.000000000000000000e+00,9.054590000000000138e-01,4.244339999999999780e-01
-1.051639999999999936e-01,-1.046750000000000042e-01,-2.047120000000000051e-01,5.411764705882352589e-01,5.411764705882352589e-01,5.411764705882352589e-01,0.000000000000000000e+00,9.054590000000000138e-01,4.244339999999999780e-01
-1.041870000000000018e-01,-1.046750000000000042e-01,-2.047120000000000051e-01,5.215686274509804266e-01,5.176470588235294601e-01,5.176470588235294601e-01,0.000000000000000000e+00,9.055729999999999613e-01,4.241900000000000115e-01
-1.032099999999999962e-01,-1.046750000000000042e-01,-2.047120000000000051e-01,5.411764705882352589e-01,5.254901960784313930e-01,5.294117647058823595e-01,3.256589999999999763e-01,9.450499999999999456e-01,-2.873459999999999903e-02
-1.027219999999999939e-01,-1.052249999999999991e-01,-2.056880000000000097e-01,5.333333333333333259e-01,5.215686274509804266e-01,5.098039215686274161e-01,-1.011169999999999985e-01,9.873739999999999739e-01,1.219350000000000017e-01
-1.012569999999999998e-01,-1.046750000000000042e-01,-2.047120000000000051e-01,5.254901960784313930e-01,5.254901960784313930e-01,5.098039215686274161e-01,-8.900260000000000116e-02,9.958979999999999499e-01,-1.628809999999999980e-02
-1.002809999999999951e-01,-1.046750000000000042e-01,-2.047120000000000051e-01,5.294117647058823595e-01,5.333333333333333259e-01,5.176470588235294601e-01,-7.417970000000000119e-02,9.967890000000000361e-01,-3.013549999999999909e-02
-9.930419999999999525e-02,-1.046750000000000042e-01,-2.047120000000000051e-01,5.333333333333333259e-01,5.294117647058823595e-01,5.294117647058823595e-01,0.000000000000000000e+00,9.995410000000000128e-01,-3.028909999999999936e-02
-9.832760000000000111e-02,-1.046750000000000042e-01,-2.047120000000000051e-01,5.215686274509804266e-01,5.215686274509804266e-01,5.215686274509804266e-01,-9.755750000000000532e-02,9.894020000000000037e-01,1.075440000000000007e-01
-9.735109999999999597e-02,-1.046750000000000042e-01,-2.047120000000000051e-01,5.176470588235294601e-01,5.176470588235294601e-01,5.176470588235294601e-01,8.830000000000000349e-02,9.956350000000000477e-01,-3.024450000000000055e-02
-9.637450000000000183e-02,-1.046750000000000042e-01,-2.047120000000000051e-01,5.254901960784313930e-01,5.215686274509804266e-01,5.215686274509804266e-01,0.000000000000000000e+00,9.995410000000000128e-01,-3.028909999999999936e-02
-9.539789999999999381e-02,-1.046750000000000042e-01,-2.047120000000000051e-01,5.137254901960783826e-01,5.098039215686274161e-01,5.098039215686274161e-01,0.000000000000000000e+00,9.995410000000000128e-01,-3.027969999999999967e-02
-9.442140000000000255e-02,-1.046750000000000042e-01,-2.047120000000000051e-01,5.294117647058823595e-01,5.137254901960783826e-01,5.176470588235294601e-01,0.000000000000000000e+00,9.995410000000000128e-01,-3.028909999999999936e-02
-9.344479999999999453e-02,-1.046750000000000042e-01,-2.047120000000000051e-01,5.333333333333333259e-01,5.176470588235294601e-01,5.215686274509804266e-01,2.566709999999999825e-01,9.552850000000000508e-01,-1.468009999999999871e-01
-9.295649999999999746e-02,-1.052249999999999991e-01,-2.056880000000000097e-01,5.294117647058823595e-01,5.137254901960783826e-01,5.254901960784313930e-01,-5.101129999999999727e-03,9.998219999999999885e-01,-1.817279999999999937e-02
-9.149169999999999525e-02,-1.046750000000000042e-01,-2.047120000000000051e-01,5.333333333333333259e-01,5.294117647058823595e-01,5.372549019607842924e-01,-4.815729999999999837e-03,9.930039999999999978e-01,-1.179850000000000065e-01
-8.715820000000000511e-02,-1.041870000000000018e-01,-2.037349999999999994e-01,5.607843137254902022e-01,5.607843137254902022e-01,5.450980392156862253e-01,-7.774410000000000487e-01,5.404970000000000052e-01,3.216339999999999755e-01
-8.428960000000000619e-02,-1.041870000000000018e-01,-2.037349999999999994e-01,6.039215686274509443e-01,5.803921568627451455e-01,5.882352941176470784e-01,6.103680000000000216e-01,7.653820000000000068e-01,-2.040619999999999934e-01
-8.374020000000000075e-02,-1.046750000000000042e-01,-2.047120000000000051e-01,6.078431372549019107e-01,5.725490196078431016e-01,5.843137254901961120e-01,2.633650000000000158e-01,9.430169999999999941e-01,2.033649999999999902e-01
-8.276369999999999560e-02,-1.046750000000000042e-01,-2.047120000000000051e-01,6.078431372549019107e-01,5.843137254901961120e-01,5.921568627450980449e-01,1.708330000000000126e-01,8.541630000000000056e-01,4.911440000000000250e-01
-8.178710000000000147e-02,-1.046750000000000042e-01,-2.047120000000000051e-01,5.999999999999999778e-01,5.843137254901961120e-01,5.882352941176470784e-01,7.588540000000000285e-01,5.962420000000000497e-01,2.619850000000000234e-01
-8.160399999999999598e-02,-1.057130000000000014e-01,-2.067869999999999986e-01,6.039215686274509443e-01,5.882352941176470784e-01,5.999999999999999778e-01,7.032509999999999595e-01,7.084740000000000482e-01,5.918450000000000100e-02
-8.062740000000000185e-02,-1.057130000000000014e-01,-2.067869999999999986e-01,5.921568627450980449e-01,5.921568627450980449e-01,5.999999999999999778e-01,3.099759999999999738e-01,9.504869999999999708e-01,2.214110000000000036e-02
-8.038330000000000475e-02,-1.067499999999999977e-01,-2.087400000000000089e-01,5.882352941176470784e-01,5.882352941176470784e-01,5.960784313725490113e-01,4.467160000000000020e-01,8.591520000000000268e-01,2.496039999999999925e-01
-7.861329999999999707e-02,-1.057130000000000014e-01,-2.067869999999999986e-01,5.999999999999999778e-01,5.960784313725490113e-01,6.039215686274509443e-01,-4.070570000000000022e-01,-2.035289999999999877e-01,8.904379999999999518e-01
-7.763670000000000293e-02,-1.057130000000000014e-01,-2.067869999999999986e-01,6.078431372549019107e-01,5.921568627450980449e-01,6.039215686274509443e-01,1.535710000000000131e-01,8.420819999999999972e-01,5.170230000000000103e-01
-7.739260000000000583e-02,-1.067499999999999977e-01,-2.087400000000000089e-01,6.078431372549019107e-01,5.843137254901961120e-01,5.999999999999999778e-01,-1.263769999999999893e-01,9.320279999999999676e-01,3.396370000000000222e-01
-7.568360000000000365e-02,-1.057130000000000014e-01,-2.067869999999999986e-01,6.039215686274509443e-01,5.882352941176470784e-01,6.078431372549019107e-01,-3.808650000000000091e-01,7.864240000000000119e-01,4.862909999999999733e-01
-7.470699999999999563e-02,-1.057130000000000014e-01,-2.067869999999999986e-01,6.078431372549019107e-01,5.921568627450980449e-01,5.960784313725490113e-01,-2.338600000000000123e-01,9.283280000000000420e-01,2.889909999999999979e-01
-7.336429999999999341e-02,-1.052249999999999991e-01,-2.056880000000000097e-01,6.078431372549019107e-01,5.843137254901961120e-01,5.921568627450980449e-01,-3.911319999999999797e-01,7.783419999999999783e-01,4.911200000000000010e-01
-7.238769999999999927e-02,-1.052249999999999991e-01,-2.056880000000000097e-01,5.999999999999999778e-01,5.764705882352940680e-01,5.921568627450980449e-01,-3.820419999999999927e-01,7.831380000000000008e-01,4.906519999999999770e-01
-7.104489999999999417e-02,-1.046750000000000042e-01,-2.047120000000000051e-01,5.803921568627451455e-01,5.568627450980392357e-01,5.725490196078431016e-01,-3.988619999999999943e-01,7.664410000000000389e-01,5.034659999999999691e-01
-7.006840000000000290e-02,-1.046750000000000042e-01,-2.047120000000000051e-01,5.882352941176470784e-01,5.529411764705882693e-01,5.725490196078431016e-01,0.000000000000000000e+00,9.055729999999999613e-01,4.241900000000000115e-01
-6.909179999999999489e-02,-1.046750000000000042e-01,-2.047120000000000051e-01,5.843137254901961120e-01,5.411764705882352589e-01,5.568627450980392357e-01,0.000000000000000000e+00,9.054590000000000138e-01,4.244339999999999780e-01
-6.811520000000000075e-02,-1.046750000000000042e-01,-2.047120000000000051e-01,5.803921568627451455e-01,5.294117647058823595e-01,5.450980392156862253e-01,0.000000000000000000e+00,9.054590000000000138e-01,4.244339999999999780e-01
-6.713869999999999560e-02,-1.046750000000000042e-01,-2.047120000000000051e-01,5.725490196078431016e-01,5.294117647058823595e-01,5.450980392156862253e-01,0.000000000000000000e+00,9.054590000000000138e-01,4.244339999999999780e-01
-6.616210000000000147e-02,-1.046750000000000042e-01,-2.047120000000000051e-01,5.686274509803921351e-01,5.333333333333333259e-01,5.450980392156862253e-01,-1.409839999999999982e-01,9.288380000000000525e-01,3.426130000000000009e-01
-6.518549999999999345e-02,-1.046750000000000042e-01,-2.047120000000000051e-01,5.686274509803921351e-01,5.333333333333333259e-01,5.450980392156862253e-01,0.000000000000000000e+00,9.922779999999999934e-01,1.240350000000000064e-01
-6.420900000000000218e-02,-1.046750000000000042e-01,-2.047120000000000051e-01,5.725490196078431016e-01,5.254901960784313930e-01,5.254901960784313930e-01,-2.186609999999999943e-01,9.402409999999999934e-01,2.610259999999999803e-01
-6.292720000000000258e-02,-1.041870000000000018e-01,-2.037349999999999994e-01,5.607843137254902022e-01,5.176470588235294601e-01,5.333333333333333259e-01,-3.902700000000000058e-01,7.846919999999999451e-01,4.816099999999999826e-01
-6.198120000000000018e-02,-1.041870000000000018e-01,-2.037349999999999994e-01,5.686274509803921351e-01,5.215686274509804266e-01,5.215686274509804266e-01,0.000000000000000000e+00,9.054590000000000138e-01,4.244339999999999780e-01
-6.103519999999999779e-02,-1.041870000000000018e-01,-2.037349999999999994e-01,5.490196078431373028e-01,5.098039215686274161e-01,5.098039215686274161e-01,-4.829860000000000264e-01,6.339190000000000103e-01,6.040459999999999718e-01
-5.975339999999999818e-02,-1.036379999999999940e-01,-2.027589999999999948e-01,5.568627450980392357e-01,5.176470588235294601e-01,5.176470588235294601e-01,-2.919829999999999925e-01,8.158330000000000304e-01,4.991610000000000213e-01
-5.877689999999999998e-02,-1.036379999999999940e-01,-2.027589999999999948e-01,5.529411764705882693e-01,5.058823529411764497e-01,5.058823529411764497e-01,0.000000000000000000e+00,8.944269999999999721e-01,4.472140000000000004e-01
-5.520629999999999982e-02,-1.041870000000000018e-01,-2.037349999999999994e-01,5.647058823529411686e-01,5.058823529411764497e-01,5.019607843137254832e-01,0.000000000000000000e+00,9.090650000000000119e-01,4.166549999999999976e-01
-5.422969999999999874e-02,-1.041870000000000018e-01,-2.037349999999999994e-01,5.607843137254902022e-01,5.019607843137254832e-01,4.980392156862745168e-01,4.280220000000000136e-01,8.560429999999999984e-01,2.898060000000000080e-01
-5.352780000000000038e-02,-1.046750000000000042e-01,-2.047120000000000051e-01,5.607843137254902022e-01,5.019607843137254832e-01,4.980392156862745168e-01,4.299390000000000156e-01,8.554000000000000492e-01,2.888649999999999829e-01
-5.255130000000000218e-02,-1.046750000000000042e-01,-2.047120000000000051e-01,5.607843137254902022e-01,5.019607843137254832e-01,4.980392156862745168e-01,5.579420000000000490e-01,8.292209999999999859e-01,-3.307650000000000173e-02
-5.233759999999999801e-02,-1.062619999999999953e-01,-2.077640000000000042e-01,5.568627450980392357e-01,4.980392156862745168e-01,4.941176470588234948e-01,7.955219999999999514e-01,5.189019999999999744e-01,3.128670000000000062e-01
-5.108639999999999709e-02,-1.057130000000000014e-01,-2.067869999999999986e-01,5.490196078431373028e-01,5.019607843137254832e-01,4.941176470588234948e-01,-2.241100000000000037e-01,9.600009999999999932e-01,1.678469999999999962e-01
-4.986569999999999891e-02,-1.052249999999999991e-01,-2.056880000000000097e-01,5.450980392156862253e-01,4.980392156862745168e-01,4.901960784313724728e-01,-8.920000000000000151e-02,9.954830000000000068e-01,-3.250259999999999955e-02
-4.913329999999999781e-02,-1.057130000000000014e-01,-2.067869999999999986e-01,5.529411764705882693e-01,5.058823529411764497e-01,4.980392156862745168e-01,3.547089999999999965e-01,9.252350000000000296e-01,-1.346179999999999877e-01
-4.815669999999999673e-02,-1.057130000000000014e-01,-2.067869999999999986e-01,5.529411764705882693e-01,5.058823529411764497e-01,4.980392156862745168e-01,0.000000000000000000e+00,9.047690000000000454e-01,4.259020000000000028e-01
-4.714970000000000272e-02,-1.057130000000000014e-01,-2.067869999999999986e-01,5.450980392156862253e-01,5.019607843137254832e-01,4.823529411764705954e-01,-1.412029999999999952e-01,9.309659999999999602e-01,3.366959999999999953e-01
-4.617310000000000164e-02,-1.057130000000000014e-01,-2.067869999999999986e-01,5.450980392156862253e-01,4.980392156862745168e-01,4.901960784313724728e-01,0.000000000000000000e+00,9.628419999999999757e-01,2.700649999999999995e-01
-4.519650000000000056e-02,-1.057130000000000014e-01,-2.067869999999999986e-01,5.529411764705882693e-01,5.058823529411764497e-01,4.980392156862745168e-01,2.053260000000000085e-01,9.783159999999999634e-01,2.717549999999999827e-02
-4.422000000000000236e-02,-1.057130000000000014e-01,-2.067869999999999986e-01,5.490196078431373028e-01,5.058823529411764497e-01,4.862745098039215064e-01,-2.141750000000000043e-01,9.728569999999999718e-01,-8.763020000000000531e-02
-4.302979999999999999e-02,-1.052249999999999991e-01,-2.056880000000000097e-01,5.450980392156862253e-01,5.019607843137254832e-01,4.823529411764705954e-01,1.328299999999999967e-02,9.926469999999999461e-01,-1.203130000000000033e-01
-4.205319999999999891e-02,-1.052249999999999991e-01,-2.056880000000000097e-01,5.450980392156862253e-01,5.019607843137254832e-01,4.823529411764705954e-01,-3.182070000000000176e-01,9.271500000000000297e-01,1.978300000000000058e-01
-4.086299999999999655e-02,-1.046750000000000042e-01,-2.047120000000000051e-01,5.490196078431373028e-01,5.058823529411764497e-01,4.862745098039215064e-01,0.000000000000000000e+00,9.901870000000000394e-01,1.397519999999999873e-01
-4.006959999999999689e-02,-1.052249999999999991e-01,-2.056880000000000097e-01,5.450980392156862253e-01,5.019607843137254832e-01,4.823529411764705954e-01,2.067610000000000003e-01,9.778860000000000330e-01,3.145570000000000310e-02
-3.909300000000000275e-02,-1.052249999999999991e-01,-2.056880000000000097e-01,5.411764705882352589e-01,4.941176470588234948e-01,4.862745098039215064e-01,0.000000000000000000e+00,9.903419999999999446e-01,1.386479999999999935e-01
-3.811649999999999761e-02,-1.052249999999999991e-01,-2.056880000000000097e-01,5.176470588235294601e-01,4.784313725490195734e-01,4.705882352941175850e-01,-2.436460000000000015e-01,9.359990000000000254e-01,2.540510000000000268e-01
-3.695679999999999799e-02,-1.046750000000000042e-01,-2.047120000000000051e-01,5.333333333333333259e-01,4.980392156862745168e-01,4.784313725490195734e-01,-2.455559999999999965e-01,9.359070000000000444e-01,2.525459999999999927e-01
-3.598019999999999691e-02,-1.046750000000000042e-01,-2.047120000000000051e-01,5.294117647058823595e-01,4.941176470588234948e-01,4.666666666666666741e-01,-1.307230000000000059e-01,9.356470000000000065e-01,3.278369999999999895e-01
-3.500369999999999870e-02,-1.046750000000000042e-01,-2.047120000000000051e-01,5.294117647058823595e-01,5.019607843137254832e-01,4.784313725490195734e-01,1.168389999999999984e-01,9.742690000000000516e-01,1.927379999999999927e-01
-3.402709999999999763e-02,-1.046750000000000042e-01,-2.047120000000000051e-01,5.294117647058823595e-01,5.019607843137254832e-01,4.784313725490195734e-01,-1.319059999999999955e-01,9.358049999999999979e-01,3.269090000000000051e-01
-3.308110000000000217e-02,-1.046750000000000042e-01,-2.047120000000000051e-01,5.254901960784313930e-01,4.941176470588234948e-01,4.901960784313724728e-01,0.000000000000000000e+00,9.054590000000000138e-01,4.244339999999999780e-01
-3.210450000000000109e-02,-1.046750000000000042e-01,-2.047120000000000051e-01,5.333333333333333259e-01,5.019607843137254832e-01,4.901960784313724728e-01,0.000000000000000000e+00,9.055159999999999876e-01,4.243120000000000225e-01
-3.112790000000000001e-02,-1.046750000000000042e-01,-2.047120000000000051e-01,5.254901960784313930e-01,4.941176470588234948e-01,4.823529411764705954e-01,1.168130000000000002e-01,9.735920000000000130e-01,1.961440000000000128e-01
-3.015139999999999834e-02,-1.046750000000000042e-01,-2.047120000000000051e-01,5.294117647058823595e-01,4.980392156862745168e-01,4.941176470588234948e-01,0.000000000000000000e+00,9.905040000000000511e-01,1.374839999999999951e-01
-2.917480000000000073e-02,-1.046750000000000042e-01,-2.047120000000000051e-01,5.333333333333333259e-01,5.137254901960783826e-01,5.058823529411764497e-01,2.068699999999999983e-01,9.774800000000000155e-01,4.168689999999999896e-02
-2.833559999999999898e-02,-1.052249999999999991e-01,-2.056880000000000097e-01,5.294117647058823595e-01,5.176470588235294601e-01,5.058823529411764497e-01,3.153889999999999749e-01,9.453799999999999981e-01,8.238639999999999852e-02
-2.735900000000000137e-02,-1.052249999999999991e-01,-2.056880000000000097e-01,5.294117647058823595e-01,5.137254901960783826e-01,5.176470588235294601e-01,1.325250000000000039e-02,9.904140000000000166e-01,1.374940000000000051e-01
-2.638240000000000030e-02,-1.052249999999999991e-01,-2.056880000000000097e-01,5.294117647058823595e-01,5.137254901960783826e-01,5.176470588235294601e-01,-5.275400000000000089e-01,8.117210000000000258e-01,2.506209999999999827e-01
-2.528379999999999864e-02,-1.046750000000000042e-01,-2.047120000000000051e-01,5.333333333333333259e-01,5.176470588235294601e-01,5.215686274509804266e-01,-2.430039999999999978e-01,9.425590000000000357e-01,2.291970000000000118e-01
-2.430730000000000043e-02,-1.046750000000000042e-01,-2.047120000000000051e-01,5.254901960784313930e-01,5.215686274509804266e-01,5.215686274509804266e-01,-1.313900000000000068e-01,9.744749999999999801e-01,1.820299999999999974e-01
-2.322389999999999871e-02,-1.041870000000000018e-01,-2.037349999999999994e-01,5.333333333333333259e-01,5.098039215686274161e-01,5.176470588235294601e-01,2.297149999999999886e-02,7.293450000000000211e-01,6.837609999999999522e-01
-2.224730000000000110e-02,-1.041870000000000018e-01,-2.037349999999999994e-01,5.294117647058823595e-01,5.137254901960783826e-01,5.176470588235294601e-01,3.616269999999999762e-01,3.559760000000000146e-01,8.616880000000000095e-01
-2.137760000000000007e-02,-1.046750000000000042e-01,-2.047120000000000051e-01,5.176470588235294601e-01,5.137254901960783826e-01,5.215686274509804266e-01,2.917629999999999946e-01,8.661720000000000530e-01,4.057330000000000103e-01
-2.041629999999999834e-02,-1.046750000000000042e-01,-2.047120000000000051e-01,5.215686274509804266e-01,5.176470588235294601e-01,5.254901960784313930e-01,3.727809999999999735e-01,9.037110000000000420e-01,2.105720000000000092e-01
-1.953119999999999856e-02,-1.052249999999999991e-01,-2.056880000000000097e-01,5.294117647058823595e-01,5.137254901960783826e-01,5.254901960784313930e-01,4.424350000000000227e-01,8.848690000000000166e-01,1.458019999999999872e-01
-1.855470000000000036e-02,-1.052249999999999991e-01,-2.056880000000000097e-01,5.254901960784313930e-01,5.098039215686274161e-01,5.215686274509804266e-01,-1.200039999999999996e-01,9.440290000000000070e-01,3.072590000000000043e-01
-1.757809999999999928e-02,-1.052249999999999991e-01,-2.056880000000000097e-01,5.254901960784313930e-01,5.098039215686274161e-01,5.215686274509804266e-01,1.083070000000000005e-01,9.734129999999999727e-01,2.018349999999999866e-01
-1.658629999999999827e-02,-1.052249999999999991e-01,-2.056880000000000097e-01,5.333333333333333259e-01,5.098039215686274161e-01,5.176470588235294601e-01,0.000000000000000000e+00,9.149159999999999515e-01,4.036440000000000028e-01
-1.561740000000000003e-02,-1.052249999999999991e-01,-2.056880000000000097e-01,5.411764705882352589e-01,5.058823529411764497e-01,5.176470588235294601e-01,0.000000000000000000e+00,9.149150000000000338e-01,4.036469999999999780e-01
-1.464080000000000069e-02,-1.052249999999999991e-01,-2.056880000000000097e-01,5.333333333333333259e-01,5.098039215686274161e-01,5.176470588235294601e-01,0.000000000000000000e+00,9.149159999999999515e-01,4.036440000000000028e-01
-1.365659999999999964e-02,-1.052249999999999991e-01,-2.056880000000000097e-01,5.215686274509804266e-01,5.058823529411764497e-01,5.098039215686274161e-01,3.081639999999999935e-01,9.448609999999999509e-01,1.107820000000000055e-01
-1.274109999999999999e-02,-1.057130000000000014e-01,-2.067869999999999986e-01,5.137254901960783826e-01,5.098039215686274161e-01,5.098039215686274161e-01,1.903650000000000064e-01,9.796000000000000263e-01,6.437479999999999591e-02
-1.175690000000000068e-02,-1.057130000000000014e-01,-2.067869999999999986e-01,5.137254901960783826e-01,5.098039215686274161e-01,5.176470588235294601e-01,0.000000000000000000e+00,9.902600000000000291e-01,1.392279999999999907e-01
-1.077269999999999964e-02,-1.057130000000000014e-01,-2.067869999999999986e-01,5.098039215686274161e-01,5.058823529411764497e-01,5.137254901960783826e-01,-2.348040000000000127e-01,9.468029999999999502e-01,2.200719999999999898e-01
-9.742739999999999734e-03,-1.052249999999999991e-01,-2.056880000000000097e-01,5.215686274509804266e-01,5.058823529411764497e-01,5.098039215686274161e-01,2.053689999999999960e-01,9.767799999999999816e-01,6.102590000000000098e-02
-8.804319999999999161e-03,-1.057130000000000014e-01,-2.067869999999999986e-01,5.254901960784313930e-01,5.098039215686274161e-01,5.137254901960783826e-01,7.912070000000000214e-02,9.967200000000000504e-01,1.701429999999999956e-02
-7.820129999999999790e-03,-1.057130000000000014e-01,-2.067869999999999986e-01,5.176470588235294601e-01,5.019607843137254832e-01,5.058823529411764497e-01,8.008090000000000694e-03,9.915950000000000042e-01,-1.291299999999999948e-01
-6.874080000000000294e-03,-1.062619999999999953e-01,-2.077640000000000042e-01,5.058823529411764497e-01,5.019607843137254832e-01,5.098039215686274161e-01,6.746489999999999432e-02,9.828710000000000502e-01,-1.715009999999999868e-01
-5.859379999999999970e-03,-1.057130000000000014e-01,-2.067869999999999986e-01,5.058823529411764497e-01,5.058823529411764497e-01,5.215686274509804266e-01,-4.603180000000000049e-01,8.877410000000000023e-01,-4.759720000000000270e-03
-4.825590000000000261e-03,-1.046750000000000042e-01,-2.047120000000000051e-01,5.058823529411764497e-01,5.019607843137254832e-01,5.098039215686274161e-01,-5.543050000000000477e-01,8.220600000000000129e-01,1.302399999999999947e-01
-3.852840000000000171e-03,-1.046750000000000042e-01,-2.047120000000000051e-01,5.137254901960783826e-01,4.980392156862745168e-01,5.098039215686274161e-01,8.764030000000000431e-02,9.958380000000000010e-01,2.501259999999999942e-02
-2.880100000000000021e-03,-1.046750000000000042e-01,-2.047120000000000051e-01,4.980392156862745168e-01,4.941176470588234948e-01,5.019607843137254832e-01,0.000000000000000000e+00,9.998730000000000118e-01,-1.596219999999999931e-02
-1.905439999999999998e-03,-1.046750000000000042e-01,-2.047120000000000051e-01,5.058823529411764497e-01,5.019607843137254832e-01,5.098039215686274161e-01,0.000000000000000000e+00,9.992330000000000378e-01,3.915489999999999943e-02
1.016619999999999980e-03,-1.046750000000000042e-01,-2.047120000000000051e-01,5.019607843137254832e-01,5.019607843137254832e-01,5.019607843137254832e-01,3.321490000000000276e-01,9.329490000000000283e-01,1.388659999999999894e-01
5.916600000000000158e-03,-1.052249999999999991e-01,-2.056880000000000097e-01,5.058823529411764497e-01,5.058823529411764497e-01,5.137254901960783826e-01,2.592889999999999917e-01,9.206670000000000131e-01,2.917899999999999938e-01
6.927489999999999690e-03,-1.057130000000000014e-01,-2.067869999999999986e-01,5.098039215686274161e-01,5.098039215686274161e-01,5.098039215686274161e-01,5.406170000000000142e-01,8.406719999999999748e-01,3.167899999999999883e-02
7.949829999999999744e-03,-1.062619999999999953e-01,-2.077640000000000042e-01,5.176470588235294601e-01,5.019607843137254832e-01,5.058823529411764497e-01,3.591030000000000055e-01,9.324930000000000163e-01,-3.874260000000000204e-02
8.934020000000000850e-03,-1.062619999999999953e-01,-2.077640000000000042e-01,5.176470588235294601e-01,4.941176470588234948e-01,5.019607843137254832e-01,2.787669999999999870e-01,9.576540000000000052e-01,-7.202550000000000618e-02
9.971620000000000483e-03,-1.067499999999999977e-01,-2.087400000000000089e-01,5.215686274509804266e-01,5.058823529411764497e-01,5.098039215686274161e-01,-1.141380000000000033e-01,9.902640000000000331e-01,7.969039999999999457e-02
1.096339999999999988e-02,-1.067499999999999977e-01,-2.087400000000000089e-01,5.137254901960783826e-01,4.980392156862745168e-01,5.098039215686274161e-01,-8.955589999999999384e-02,9.932309999999999750e-01,7.397689999999999821e-02
1.190189999999999998e-02,-1.062619999999999953e-01,-2.077640000000000042e-01,5.137254901960783826e-01,5.098039215686274161e-01,5.176470588235294601e-01,-6.577239999999999753e-01,6.407009999999999650e-01,3.961069999999999869e-01
1.289369999999999926e-02,-1.062619999999999953e-01,-2.077640000000000042e-01,5.058823529411764497e-01,5.019607843137254832e-01,5.098039215686274161e-01,1.705460000000000031e-01,8.113470000000000404e-01,5.591329999999999911e-01
1.387790000000000031e-02,-1.062619999999999953e-01,-2.077640000000000042e-01,5.098039215686274161e-01,5.098039215686274161e-01,5.176470588235294601e-01,0.000000000000000000e+00,9.054450000000000554e-01,4.244640000000000080e-01
1.486969999999999958e-02,-1.062619999999999953e-01,-2.077640000000000042e-01,5.058823529411764497e-01,5.058823529411764497e-01,5.137254901960783826e-01,-3.517719999999999736e-01,8.588989999999999680e-01,3.722219999999999973e-01
1.577759999999999926e-02,-1.057130000000000014e-01,-2.067869999999999986e-01,4.980392156862745168e-01,5.098039215686274161e-01,5.137254901960783826e-01,-2.955990000000000006e-01,8.804260000000000419e-01,3.707730000000000192e-01
1.675420000000000034e-02,-1.057130000000000014e-01,-2.067869999999999986e-01,5.019607843137254832e-01,5.019607843137254832e-01,5.176470588235294601e-01,2.876159999999999828e-01,9.551539999999999475e-01,7.041119999999999324e-02
1.783749999999999919e-02,-1.062619999999999953e-01,-2.077640000000000042e-01,5.058823529411764497e-01,5.019607843137254832e-01,5.176470588235294601e-01,3.445489999999999942e-01,9.373850000000000238e-01,5.094309999999999811e-02
1.890560000000000157e-02,-1.067499999999999977e-01,-2.087400000000000089e-01,5.137254901960783826e-01,5.098039215686274161e-01,5.254901960784313930e-01,2.497510000000000008e-01,9.123980000000000423e-01,3.242740000000000067e-01
1.989749999999999852e-02,-1.067499999999999977e-01,-2.087400000000000089e-01,5.137254901960783826e-01,5.098039215686274161e-01,5.176470588235294601e-01,1.318730000000000076e-02,9.898719999999999741e-01,1.413510000000000044e-01
2.079769999999999883e-02,-1.062619999999999953e-01,-2.077640000000000042e-01,5.137254901960783826e-01,5.098039215686274161e-01,5.176470588235294601e-01,-1.696000000000000008e-01,9.854669999999999819e-01,9.523419999999999455e-03
2.178959999999999925e-02,-1.062619999999999953e-01,-2.077640000000000042e-01,5.137254901960783826e-01,5.098039215686274161e-01,5.176470588235294601e-01,1.455879999999999952e-01,9.886939999999999618e-01,-3.589950000000000085e-02
2.288820000000000091e-02,-1.067499999999999977e-01,-2.087400000000000089e-01,5.137254901960783826e-01,5.098039215686274161e-01,5.176470588235294601e-01,2.631450000000000178e-01,9.634099999999999886e-01,-5.094590000000000229e-02
2.398679999999999909e-02,-1.072390000000000010e-01,-2.097169999999999868e-01,5.137254901960783826e-01,5.098039215686274161e-01,5.176470588235294601e-01,-2.834280000000000133e-01,9.551129999999999898e-01,-8.617930000000000035e-02
2.487179999999999946e-02,-1.067499999999999977e-01,-2.087400000000000089e-01,5.137254901960783826e-01,5.098039215686274161e-01,5.176470588235294601e-01,-1.080770000000000064e-01,9.790109999999999646e-01,-1.727920000000000011e-01
2.586360000000000048e-02,-1.067499999999999977e-01,-2.087400000000000089e-01,5.176470588235294601e-01,5.137254901960783826e-01,5.215686274509804266e-01,0.000000000000000000e+00,9.998820000000000485e-01,-1.538280000000000029e-02
2.685550000000000090e-02,-1.067499999999999977e-01,-2.087400000000000089e-01,5.176470588235294601e-01,5.137254901960783826e-01,5.215686274509804266e-01,-5.274809999999999777e-01,7.872259999999999813e-01,3.194359999999999977e-01
2.758789999999999853e-02,-1.057130000000000014e-01,-2.067869999999999986e-01,5.137254901960783826e-01,5.098039215686274161e-01,5.176470588235294601e-01,-5.918039999999999967e-01,7.554469999999999796e-01,2.811910000000000243e-01
2.856449999999999961e-02,-1.057130000000000014e-01,-2.067869999999999986e-01,5.137254901960783826e-01,5.098039215686274161e-01,5.176470588235294601e-01,-1.442519999999999913e-01,9.450969999999999649e-01,2.932290000000000174e-01
2.955630000000000063e-02,-1.057130000000000014e-01,-2.067869999999999986e-01,5.215686274509804266e-01,5.058823529411764497e-01,5.176470588235294601e-01,0.000000000000000000e+00,9.902609999999999468e-01,1.392269999999999897e-01
3.053279999999999883e-02,-1.057130000000000014e-01,-2.067869999999999986e-01,5.098039215686274161e-01,5.058823529411764497e-01,5.137254901960783826e-01,0.000000000000000000e+00,9.901790000000000314e-01,1.398089999999999888e-01
3.152470000000000272e-02,-1.057130000000000014e-01,-2.067869999999999986e-01,5.058823529411764497e-01,5.058823529411764497e-01,5.137254901960783826e-01,0.000000000000000000e+00,9.901790000000000314e-01,1.398089999999999888e-01
3.250120000000000092e-02,-1.057130000000000014e-01,-2.067869999999999986e-01,5.137254901960783826e-01,5.098039215686274161e-01,5.098039215686274161e-01,2.646560000000000024e-01,9.029420000000000224e-01,3.386029999999999873e-01
3.347780000000000200e-02,-1.057130000000000014e-01,-2.067869999999999986e-01,5.058823529411764497e-01,5.019607843137254832e-01,5.019607843137254832e-01,-9.183669999999999681e-03,9.045919999999999517e-01,4.261800000000000033e-01
3.445430000000000020e-02,-1.057130000000000014e-01,-2.067869999999999986e-01,5.098039215686274161e-01,5.058823529411764497e-01,5.137254901960783826e-01,-1.359710000000000085e-01,9.477950000000000541e-01,2.884380000000000277e-01
3.543090000000000128e-02,-1.057130000000000014e-01,-2.067869999999999986e-01,5.058823529411764497e-01,5.019607843137254832e-01,5.098039215686274161e-01,0.000000000000000000e+00,9.048190000000000399e-01,4.257969999999999811e-01
3.643799999999999817e-02,-1.057130000000000014e-01,-2.067869999999999986e-01,4.901960784313724728e-01,4.901960784313724728e-01,4.980392156862745168e-01,0.000000000000000000e+00,9.048190000000000399e-01,4.257969999999999811e-01
4.992680000000000035e-02,-1.072390000000000010e-01,-2.097169999999999868e-01,4.627450980392157076e-01,4.627450980392157076e-01,4.705882352941175850e-01,-1.860179999999999889e-01,9.807900000000000507e-01,-5.872340000000000199e-02
5.093380000000000130e-02,-1.072390000000000010e-01,-2.097169999999999868e-01,4.588235294117646856e-01,4.588235294117646856e-01,4.588235294117646856e-01,-5.712880000000000180e-01,8.179389999999999716e-01,-6.785940000000000027e-02
