X,Y,Z,R,G,B,nX,nY,nZ
3.668210000000000220e-02,1.989749999999999852e-02,-2.268070000000000086e-01,7.686274509803922017e-01,6.666666666666666297e-01,4.941176470588234948e-01,1.249050000000000021e-01,2.498090000000000033e-01,9.602049999999999752e-01
3.787229999999999763e-02,1.989749999999999852e-02,-2.268070000000000086e-01,7.725490196078431682e-01,6.705882352941175961e-01,4.980392156862745168e-01,0.000000000000000000e+00,3.661349999999999882e-01,9.305620000000000003e-01
3.909300000000000275e-02,1.989749999999999852e-02,-2.268070000000000086e-01,7.686274509803922017e-01,6.666666666666666297e-01,4.941176470588234948e-01,0.000000000000000000e+00,3.674279999999999768e-01,9.300519999999999898e-01
4.028319999999999818e-02,1.989749999999999852e-02,-2.268070000000000086e-01,7.647058823529411242e-01,6.627450980392156632e-01,4.901960784313724728e-01,2.182179999999999953e-01,4.364359999999999906e-01,8.728719999999999812e-01
4.165649999999999908e-02,1.997379999999999989e-02,-2.277830000000000132e-01,7.450980392156862919e-01,6.352941176470587870e-01,4.549019607843137192e-01,2.175660000000000094e-01,4.351320000000000188e-01,8.736850000000000449e-01
4.284670000000000145e-02,1.997379999999999989e-02,-2.277830000000000132e-01,7.450980392156862919e-01,6.352941176470587870e-01,4.470588235294117863e-01,1.246710000000000040e-01,2.493420000000000081e-01,9.603570000000000162e-01
4.403689999999999688e-02,1.997379999999999989e-02,-2.277830000000000132e-01,7.411764705882353255e-01,6.313725490196078205e-01,4.431372549019607088e-01,0.000000000000000000e+00,0.000000000000000000e+00,1.000000000000000000e+00
4.522709999999999925e-02,1.997379999999999989e-02,-2.277830000000000132e-01,7.333333333333332815e-01,6.196078431372549211e-01,4.117647058823529216e-01,0.000000000000000000e+00,0.000000000000000000e+00,1.000000000000000000e+00
4.644779999999999742e-02,1.997379999999999989e-02,-2.277830000000000132e-01,7.294117647058823151e-01,6.156862745098039547e-01,4.078431372549018996e-01,4.578929999999999945e-01,2.325810000000000100e-01,8.580449999999999466e-01
4.785160000000000108e-02,2.006530000000000119e-02,-2.288820000000000021e-01,7.098039215686274828e-01,5.960784313725490113e-01,3.803921568627450789e-01,2.720639999999999725e-01,1.377539999999999876e-01,9.523679999999999923e-01
4.904170000000000057e-02,2.006530000000000119e-02,-2.288820000000000021e-01,7.019607843137254388e-01,5.686274509803921351e-01,3.607843137254901911e-01,3.487339999999999884e-01,0.000000000000000000e+00,9.372219999999999995e-01
5.047610000000000291e-02,2.015689999999999843e-02,-2.298580000000000068e-01,6.745098039215686736e-01,5.411764705882352589e-01,3.333333333333333148e-01,3.487339999999999884e-01,0.000000000000000000e+00,9.372219999999999995e-01
5.166629999999999834e-02,2.015689999999999843e-02,-2.298580000000000068e-01,6.666666666666666297e-01,5.372549019607842924e-01,3.176470588235293935e-01,3.493180000000000174e-01,0.000000000000000000e+00,9.370039999999999480e-01
5.310059999999999780e-02,2.024839999999999973e-02,-2.308350000000000124e-01,6.627450980392156632e-01,5.333333333333333259e-01,3.137254901960784270e-01,3.446190000000000087e-01,0.000000000000000000e+00,9.387429999999999941e-01
5.432130000000000292e-02,2.024839999999999973e-02,-2.308350000000000124e-01,6.313725490196078205e-01,5.019607843137254832e-01,2.823529411764705843e-01,3.417430000000000190e-01,0.000000000000000000e+00,9.397929999999999895e-01
5.578609999999999819e-02,2.032470000000000110e-02,-2.318119999999999903e-01,5.921568627450980449e-01,4.627450980392157076e-01,2.431372549019606977e-01,3.417430000000000190e-01,0.000000000000000000e+00,9.397929999999999895e-01
2.233510000000000183e-03,1.943970000000000073e-02,-2.358399999999999941e-01,6.823529411764706065e-01,5.647058823529411686e-01,3.843137254901961009e-01,-5.527220000000000466e-01,-1.101710000000000050e-01,8.260509999999999797e-01
3.458020000000000017e-03,1.936339999999999936e-02,-2.348629999999999884e-01,6.666666666666666297e-01,5.529411764705882693e-01,3.450980392156862142e-01,-6.249869999999999592e-01,0.000000000000000000e+00,7.806349999999999678e-01
4.673000000000000070e-03,1.927190000000000153e-02,-2.338870000000000116e-01,6.705882352941175961e-01,5.490196078431373028e-01,3.450980392156862142e-01,-6.514320000000000110e-01,0.000000000000000000e+00,7.587070000000000203e-01
5.874629999999999609e-03,1.919560000000000016e-02,-2.327879999999999949e-01,6.862745098039215730e-01,5.647058823529411686e-01,3.607843137254901911e-01,-6.547899999999999832e-01,0.000000000000000000e+00,7.558099999999999818e-01
7.068630000000000226e-03,1.911929999999999880e-02,-2.318119999999999903e-01,6.941176470588235059e-01,5.725490196078431016e-01,3.686274509803921795e-01,-2.468100000000000016e-01,2.468100000000000016e-01,9.371070000000000233e-01
8.285519999999999344e-03,1.911929999999999880e-02,-2.318119999999999903e-01,7.058823529411765163e-01,5.843137254901961120e-01,3.803921568627450789e-01,-4.712480000000000002e-01,1.185549999999999937e-01,8.739970000000000239e-01
9.460450000000000456e-03,1.902770000000000156e-02,-2.308350000000000124e-01,7.098039215686274828e-01,5.882352941176470784e-01,3.843137254901961009e-01,-3.785180000000000211e-01,0.000000000000000000e+00,9.255940000000000278e-01
1.067350000000000070e-02,1.902770000000000156e-02,-2.308350000000000124e-01,7.098039215686274828e-01,5.882352941176470784e-01,3.843137254901961009e-01,-3.799020000000000175e-01,0.000000000000000000e+00,9.250270000000000437e-01
1.183320000000000032e-02,1.895140000000000019e-02,-2.298580000000000068e-01,7.254901960784313486e-01,6.039215686274509443e-01,4.000000000000000222e-01,-3.823489999999999944e-01,0.000000000000000000e+00,9.240180000000000060e-01
1.303859999999999915e-02,1.895140000000000019e-02,-2.298580000000000068e-01,7.176470588235294157e-01,5.960784313725490113e-01,3.921568627450979783e-01,-3.819969999999999755e-01,0.000000000000000000e+00,9.241629999999999567e-01
1.419070000000000054e-02,1.885989999999999889e-02,-2.288820000000000021e-01,7.137254901960784492e-01,5.921568627450980449e-01,3.803921568627450789e-01,-3.844719999999999804e-01,0.000000000000000000e+00,9.231369999999999854e-01
1.538849999999999940e-02,1.885989999999999889e-02,-2.288820000000000021e-01,7.098039215686274828e-01,5.882352941176470784e-01,3.764705882352941124e-01,0.000000000000000000e+00,0.000000000000000000e+00,1.000000000000000000e+00
1.658629999999999827e-02,1.885989999999999889e-02,-2.288820000000000021e-01,7.058823529411765163e-01,5.843137254901961120e-01,3.725490196078430905e-01,0.000000000000000000e+00,0.000000000000000000e+00,1.000000000000000000e+00
1.779170000000000057e-02,1.885989999999999889e-02,-2.288820000000000021e-01,7.098039215686274828e-01,5.921568627450980449e-01,3.686274509803921795e-01,-4.280860000000000221e-01,0.000000000000000000e+00,9.037380000000000413e-01
1.890560000000000157e-02,1.878360000000000099e-02,-2.277830000000000132e-01,6.941176470588235059e-01,5.607843137254902022e-01,3.529411764705882026e-01,-2.801239999999999841e-01,2.801239999999999841e-01,9.181840000000000002e-01
2.011109999999999981e-02,1.878360000000000099e-02,-2.277830000000000132e-01,6.901960784313725394e-01,5.568627450980392357e-01,3.490196078431371807e-01,-1.484419999999999906e-01,1.503450000000000064e-01,9.774260000000000170e-01
2.130129999999999871e-02,1.878360000000000099e-02,-2.277830000000000132e-01,6.862745098039215730e-01,5.529411764705882693e-01,3.450980392156862142e-01,0.000000000000000000e+00,0.000000000000000000e+00,1.000000000000000000e+00
2.250670000000000101e-02,1.878360000000000099e-02,-2.277830000000000132e-01,6.666666666666666297e-01,5.294117647058823595e-01,3.058823529411764941e-01,0.000000000000000000e+00,0.000000000000000000e+00,1.000000000000000000e+00
2.369689999999999991e-02,1.878360000000000099e-02,-2.277830000000000132e-01,6.627450980392156632e-01,5.294117647058823595e-01,2.941176470588234837e-01,0.000000000000000000e+00,0.000000000000000000e+00,1.000000000000000000e+00
2.490229999999999874e-02,1.878360000000000099e-02,-2.277830000000000132e-01,6.862745098039215730e-01,5.529411764705882693e-01,3.176470588235293935e-01,0.000000000000000000e+00,0.000000000000000000e+00,1.000000000000000000e+00
2.609250000000000111e-02,1.878360000000000099e-02,-2.277830000000000132e-01,7.058823529411765163e-01,5.686274509803921351e-01,3.450980392156862142e-01,-1.356999999999999873e-01,1.339819999999999900e-01,9.816489999999999938e-01
2.728270000000000001e-02,1.878360000000000099e-02,-2.277830000000000132e-01,7.098039215686274828e-01,5.725490196078431016e-01,3.568627450980392246e-01,-2.571359999999999757e-01,2.554980000000000029e-01,9.319880000000000386e-01
2.836610000000000173e-02,1.870729999999999962e-02,-2.268070000000000086e-01,7.254901960784313486e-01,5.882352941176470784e-01,3.725490196078430905e-01,-2.565200000000000258e-01,2.565200000000000258e-01,9.318769999999999554e-01
2.955630000000000063e-02,1.870729999999999962e-02,-2.268070000000000086e-01,7.411764705882353255e-01,6.196078431372549211e-01,4.078431372549018996e-01,-1.342639999999999945e-01,1.342639999999999945e-01,9.818080000000000140e-01
3.074649999999999953e-02,1.870729999999999962e-02,-2.268070000000000086e-01,7.450980392156862919e-01,6.235294117647058876e-01,4.196078431372549100e-01,0.000000000000000000e+00,0.000000000000000000e+00,1.000000000000000000e+00
3.192140000000000255e-02,1.870729999999999962e-02,-2.268070000000000086e-01,7.529411764705882248e-01,6.392156862745097534e-01,4.313725490196078094e-01,0.000000000000000000e+00,0.000000000000000000e+00,1.000000000000000000e+00
3.311159999999999798e-02,1.870729999999999962e-02,-2.268070000000000086e-01,7.607843137254901578e-01,6.470588235294117974e-01,4.470588235294117863e-01,-1.365520000000000067e-01,1.348239999999999994e-01,9.814150000000000373e-01
3.430180000000000035e-02,1.870729999999999962e-02,-2.268070000000000086e-01,7.607843137254901578e-01,6.509803921568627638e-01,4.627450980392157076e-01,0.000000000000000000e+00,3.674279999999999768e-01,9.300519999999999898e-01
3.549189999999999984e-02,1.870729999999999962e-02,-2.268070000000000086e-01,7.607843137254901578e-01,6.509803921568627638e-01,4.705882352941175850e-01,0.000000000000000000e+00,3.674279999999999768e-01,9.300519999999999898e-01
3.668210000000000220e-02,1.870729999999999962e-02,-2.268070000000000086e-01,7.529411764705882248e-01,6.549019607843137303e-01,4.705882352941175850e-01,0.000000000000000000e+00,3.674279999999999768e-01,9.300519999999999898e-01
3.787229999999999763e-02,1.870729999999999962e-02,-2.268070000000000086e-01,7.607843137254901578e-01,6.627450980392156632e-01,4.784313725490195734e-01,1.251359999999999972e-01,2.502730000000000232e-01,9.600539999999999630e-01
3.909300000000000275e-02,1.870729999999999962e-02,-2.268070000000000086e-01,7.490196078431372584e-01,6.509803921568627638e-01,4.666666666666666741e-01,0.000000000000000000e+00,0.000000000000000000e+00,1.000000000000000000e+00
4.028319999999999818e-02,1.870729999999999962e-02,-2.268070000000000086e-01,7.450980392156862919e-01,6.352941176470587870e-01,4.470588235294117863e-01,0.000000000000000000e+00,0.000000000000000000e+00,1.000000000000000000e+00
4.147340000000000054e-02,1.870729999999999962e-02,-2.268070000000000086e-01,7.490196078431372584e-01,6.313725490196078205e-01,4.431372549019607088e-01,1.246710000000000040e-01,2.493420000000000081e-01,9.603570000000000162e-01
4.266360000000000291e-02,1.870729999999999962e-02,-2.268070000000000086e-01,7.450980392156862919e-01,6.196078431372549211e-01,4.352941176470587759e-01,2.185239999999999960e-01,4.342639999999999834e-01,8.738780000000000436e-01
4.403689999999999688e-02,1.878360000000000099e-02,-2.277830000000000132e-01,7.333333333333332815e-01,6.078431372549019107e-01,4.235294117647058765e-01,3.286459999999999937e-01,3.258610000000000118e-01,8.864570000000000505e-01
4.522709999999999925e-02,1.878360000000000099e-02,-2.277830000000000132e-01,7.254901960784313486e-01,6.039215686274509443e-01,4.000000000000000222e-01,0.000000000000000000e+00,0.000000000000000000e+00,1.000000000000000000e+00
4.644779999999999742e-02,1.878360000000000099e-02,-2.277830000000000132e-01,7.176470588235294157e-01,5.960784313725490113e-01,3.921568627450979783e-01,2.707559999999999967e-01,1.345159999999999967e-01,9.532030000000000225e-01
4.785160000000000108e-02,1.885989999999999889e-02,-2.288820000000000021e-01,7.058823529411765163e-01,5.843137254901961120e-01,3.725490196078430905e-01,4.614249999999999741e-01,2.292430000000000023e-01,8.570499999999999785e-01
4.904170000000000057e-02,1.885989999999999889e-02,-2.288820000000000021e-01,6.784313725490196401e-01,5.490196078431373028e-01,3.294117647058822929e-01,2.434560000000000057e-01,1.209530000000000050e-01,9.623410000000000020e-01
5.047610000000000291e-02,1.895140000000000019e-02,-2.298580000000000068e-01,6.549019607843137303e-01,5.176470588235294601e-01,3.019607843137254166e-01,4.170010000000000105e-01,2.065150000000000041e-01,8.851339999999999764e-01
5.166629999999999834e-02,1.895140000000000019e-02,-2.298580000000000068e-01,6.509803921568627638e-01,5.137254901960783826e-01,2.980392156862745057e-01,3.487339999999999884e-01,0.000000000000000000e+00,9.372219999999999995e-01
5.310059999999999780e-02,1.902770000000000156e-02,-2.308350000000000124e-01,6.352941176470587870e-01,4.980392156862745168e-01,2.823529411764705843e-01,3.452049999999999841e-01,0.000000000000000000e+00,9.385270000000000001e-01
5.432130000000000292e-02,1.902770000000000156e-02,-2.308350000000000124e-01,6.352941176470587870e-01,4.980392156862745168e-01,2.745098039215685959e-01,3.417430000000000190e-01,0.000000000000000000e+00,9.397929999999999895e-01
5.578609999999999819e-02,1.911929999999999880e-02,-2.318119999999999903e-01,5.999999999999999778e-01,4.627450980392157076e-01,2.392156862745097867e-01,3.417430000000000190e-01,0.000000000000000000e+00,9.397929999999999895e-01
2.233510000000000183e-03,1.820369999999999974e-02,-2.358399999999999941e-01,6.666666666666666297e-01,5.490196078431373028e-01,3.686274509803921795e-01,-6.220219999999999638e-01,0.000000000000000000e+00,7.830000000000000293e-01
3.458020000000000017e-03,1.812739999999999838e-02,-2.348629999999999884e-01,6.470588235294117974e-01,5.333333333333333259e-01,3.333333333333333148e-01,-6.249930000000000208e-01,0.000000000000000000e+00,7.806309999999999638e-01
4.673000000000000070e-03,1.805110000000000048e-02,-2.338870000000000116e-01,6.549019607843137303e-01,5.333333333333333259e-01,3.372549019607842813e-01,-6.514320000000000110e-01,0.000000000000000000e+00,7.587070000000000203e-01
5.874629999999999609e-03,1.797489999999999852e-02,-2.327879999999999949e-01,6.705882352941175961e-01,5.490196078431373028e-01,3.450980392156862142e-01,-6.547469999999999679e-01,0.000000000000000000e+00,7.558479999999999643e-01
7.068630000000000226e-03,1.789860000000000062e-02,-2.318119999999999903e-01,6.823529411764706065e-01,5.607843137254902022e-01,3.568627450980392246e-01,-3.754330000000000167e-01,0.000000000000000000e+00,9.268499999999999517e-01
8.285519999999999344e-03,1.789860000000000062e-02,-2.318119999999999903e-01,6.862745098039215730e-01,5.647058823529411686e-01,3.607843137254901911e-01,-3.780000000000000027e-01,0.000000000000000000e+00,9.258049999999999891e-01
9.460450000000000456e-03,1.782229999999999925e-02,-2.308350000000000124e-01,6.862745098039215730e-01,5.529411764705882693e-01,3.450980392156862142e-01,-3.785180000000000211e-01,0.000000000000000000e+00,9.255940000000000278e-01
1.067350000000000070e-02,1.782229999999999925e-02,-2.308350000000000124e-01,7.019607843137254388e-01,5.686274509803921351e-01,3.607843137254901911e-01,-3.805999999999999939e-01,0.000000000000000000e+00,9.247400000000000064e-01
1.183320000000000032e-02,1.774600000000000136e-02,-2.298580000000000068e-01,7.215686274509803821e-01,5.882352941176470784e-01,3.803921568627450789e-01,-3.816490000000000160e-01,0.000000000000000000e+00,9.243069999999999897e-01
1.303859999999999915e-02,1.774600000000000136e-02,-2.298580000000000068e-01,7.176470588235294157e-01,5.960784313725490113e-01,3.843137254901961009e-01,-3.827039999999999886e-01,0.000000000000000000e+00,9.238709999999999978e-01
1.419070000000000054e-02,1.766969999999999999e-02,-2.288820000000000021e-01,7.058823529411765163e-01,5.843137254901961120e-01,3.725490196078430905e-01,-3.837639999999999940e-01,0.000000000000000000e+00,9.234310000000000018e-01
1.538849999999999940e-02,1.766969999999999999e-02,-2.288820000000000021e-01,7.019607843137254388e-01,5.686274509803921351e-01,3.607843137254901911e-01,0.000000000000000000e+00,0.000000000000000000e+00,1.000000000000000000e+00
1.658629999999999827e-02,1.766969999999999999e-02,-2.288820000000000021e-01,7.019607843137254388e-01,5.686274509803921351e-01,3.607843137254901911e-01,0.000000000000000000e+00,0.000000000000000000e+00,1.000000000000000000e+00
1.779170000000000057e-02,1.766969999999999999e-02,-2.288820000000000021e-01,6.901960784313725394e-01,5.568627450980392357e-01,3.490196078431371807e-01,-2.977549999999999919e-01,-1.498259999999999870e-01,9.428119999999999834e-01
1.890560000000000157e-02,1.757809999999999928e-02,-2.277830000000000132e-01,6.823529411764706065e-01,5.490196078431373028e-01,3.411764705882353033e-01,-5.288150000000000350e-01,-2.660919999999999952e-01,8.059469999999999690e-01
2.011109999999999981e-02,1.757809999999999928e-02,-2.277830000000000132e-01,6.627450980392156632e-01,5.294117647058823595e-01,3.215686274509804154e-01,0.000000000000000000e+00,0.000000000000000000e+00,1.000000000000000000e+00
2.130129999999999871e-02,1.757809999999999928e-02,-2.277830000000000132e-01,6.549019607843137303e-01,5.254901960784313930e-01,3.058823529411764941e-01,0.000000000000000000e+00,0.000000000000000000e+00,1.000000000000000000e+00
2.250670000000000101e-02,1.757809999999999928e-02,-2.277830000000000132e-01,6.392156862745097534e-01,5.019607843137254832e-01,2.784313725490196179e-01,0.000000000000000000e+00,0.000000000000000000e+00,1.000000000000000000e+00
2.369689999999999991e-02,1.757809999999999928e-02,-2.277830000000000132e-01,6.352941176470587870e-01,4.901960784313724728e-01,2.588235294117646745e-01,0.000000000000000000e+00,0.000000000000000000e+00,1.000000000000000000e+00
2.490229999999999874e-02,1.757809999999999928e-02,-2.277830000000000132e-01,6.588235294117646967e-01,5.098039215686274161e-01,2.901960784313725727e-01,0.000000000000000000e+00,0.000000000000000000e+00,1.000000000000000000e+00
2.609250000000000111e-02,1.757809999999999928e-02,-2.277830000000000132e-01,6.980392156862744724e-01,5.490196078431373028e-01,3.372549019607842813e-01,-3.939219999999999944e-01,0.000000000000000000e+00,9.191439999999999610e-01
2.717589999999999936e-02,1.750180000000000138e-02,-2.268070000000000086e-01,7.098039215686274828e-01,5.725490196078431016e-01,3.568627450980392246e-01,-2.571359999999999757e-01,2.554980000000000029e-01,9.319880000000000386e-01
2.836610000000000173e-02,1.750180000000000138e-02,-2.268070000000000086e-01,7.176470588235294157e-01,5.803921568627451455e-01,3.647058823529411020e-01,-1.356999999999999873e-01,1.339819999999999900e-01,9.816489999999999938e-01
2.955630000000000063e-02,1.750180000000000138e-02,-2.268070000000000086e-01,7.294117647058823151e-01,5.921568627450980449e-01,3.764705882352941124e-01,0.000000000000000000e+00,0.000000000000000000e+00,1.000000000000000000e+00
3.074649999999999953e-02,1.750180000000000138e-02,-2.268070000000000086e-01,7.294117647058823151e-01,6.078431372549019107e-01,4.039215686274509887e-01,-1.354289999999999938e-01,1.336930000000000063e-01,9.817259999999999875e-01
3.192140000000000255e-02,1.750180000000000138e-02,-2.268070000000000086e-01,7.411764705882353255e-01,6.196078431372549211e-01,4.156862745098038880e-01,0.000000000000000000e+00,3.687230000000000230e-01,9.295390000000000041e-01
3.311159999999999798e-02,1.750180000000000138e-02,-2.268070000000000086e-01,7.490196078431372584e-01,6.352941176470587870e-01,4.352941176470587759e-01,-2.599110000000000031e-01,2.599110000000000031e-01,9.299960000000000448e-01
3.414919999999999761e-02,1.742550000000000002e-02,-2.258300000000000030e-01,7.529411764705882248e-01,6.352941176470587870e-01,4.470588235294117863e-01,-2.599110000000000031e-01,2.599110000000000031e-01,9.299960000000000448e-01
3.533939999999999998e-02,1.742550000000000002e-02,-2.258300000000000030e-01,7.529411764705882248e-01,6.352941176470587870e-01,4.470588235294117863e-01,0.000000000000000000e+00,3.694000000000000061e-01,9.292709999999999582e-01
3.652949999999999947e-02,1.742550000000000002e-02,-2.258300000000000030e-01,7.411764705882353255e-01,6.235294117647058876e-01,4.431372549019607088e-01,0.000000000000000000e+00,3.694000000000000061e-01,9.292709999999999582e-01
3.771970000000000184e-02,1.742550000000000002e-02,-2.258300000000000030e-01,7.607843137254901578e-01,6.431372549019608309e-01,4.627450980392157076e-01,2.179099999999999926e-01,4.386129999999999751e-01,8.718569999999999931e-01
3.909300000000000275e-02,1.750180000000000138e-02,-2.268070000000000086e-01,7.490196078431372584e-01,6.313725490196078205e-01,4.509803921568626972e-01,2.172560000000000047e-01,4.372980000000000200e-01,8.726800000000000113e-01
4.028319999999999818e-02,1.750180000000000138e-02,-2.268070000000000086e-01,7.411764705882353255e-01,6.235294117647058876e-01,4.352941176470587759e-01,1.251390000000000002e-01,2.502780000000000005e-01,9.600530000000000452e-01
4.147340000000000054e-02,1.750180000000000138e-02,-2.268070000000000086e-01,7.254901960784313486e-01,6.117647058823529882e-01,4.117647058823529216e-01,0.000000000000000000e+00,0.000000000000000000e+00,1.000000000000000000e+00
4.266360000000000291e-02,1.750180000000000138e-02,-2.268070000000000086e-01,7.137254901960784492e-01,5.921568627450980449e-01,3.882352941176470118e-01,0.000000000000000000e+00,0.000000000000000000e+00,1.000000000000000000e+00
4.385379999999999834e-02,1.750180000000000138e-02,-2.268070000000000086e-01,7.098039215686274828e-01,5.882352941176470784e-01,3.764705882352941124e-01,3.286459999999999937e-01,3.258610000000000118e-01,8.864570000000000505e-01
4.522709999999999925e-02,1.757809999999999928e-02,-2.277830000000000132e-01,7.137254901960784492e-01,5.921568627450980449e-01,3.803921568627450789e-01,3.241780000000000217e-01,3.255569999999999853e-01,8.882120000000000015e-01
4.644779999999999742e-02,1.757809999999999928e-02,-2.277830000000000132e-01,7.098039215686274828e-01,5.764705882352940680e-01,3.686274509803921795e-01,0.000000000000000000e+00,0.000000000000000000e+00,1.000000000000000000e+00
4.763789999999999691e-02,1.757809999999999928e-02,-2.277830000000000132e-01,6.941176470588235059e-01,5.607843137254902022e-01,3.529411764705882026e-01,4.614249999999999741e-01,2.292430000000000023e-01,8.570499999999999785e-01
4.904170000000000057e-02,1.766969999999999999e-02,-2.288820000000000021e-01,6.627450980392156632e-01,5.254901960784313930e-01,3.098039215686274050e-01,2.731999999999999984e-01,1.357299999999999895e-01,9.523340000000000138e-01
5.023190000000000294e-02,1.766969999999999999e-02,-2.288820000000000021e-01,6.313725490196078205e-01,4.941176470588234948e-01,2.784313725490196179e-01,4.175969999999999960e-01,2.068099999999999938e-01,8.847840000000000149e-01
5.166629999999999834e-02,1.774600000000000136e-02,-2.298580000000000068e-01,6.156862745098039547e-01,4.784313725490195734e-01,2.627450980392156965e-01,4.986140000000000017e-01,9.821190000000000475e-02,8.612419999999999520e-01
5.310059999999999780e-02,1.782229999999999925e-02,-2.308350000000000124e-01,6.117647058823529882e-01,4.745098039215686070e-01,2.588235294117646745e-01,3.446190000000000087e-01,0.000000000000000000e+00,9.387429999999999941e-01
5.432130000000000292e-02,1.782229999999999925e-02,-2.308350000000000124e-01,6.078431372549019107e-01,4.745098039215686070e-01,2.666666666666666075e-01,3.423180000000000112e-01,0.000000000000000000e+00,9.395839999999999748e-01
5.578609999999999819e-02,1.789860000000000062e-02,-2.318119999999999903e-01,5.921568627450980449e-01,4.627450980392157076e-01,2.431372549019606977e-01,3.411699999999999733e-01,0.000000000000000000e+00,9.400020000000000042e-01
2.233510000000000183e-03,1.696780000000000163e-02,-2.358399999999999941e-01,6.431372549019608309e-01,5.333333333333333259e-01,3.529411764705882026e-01,-6.220250000000000501e-01,0.000000000000000000e+00,7.829979999999999718e-01
3.458020000000000017e-03,1.689150000000000026e-02,-2.348629999999999884e-01,6.392156862745097534e-01,5.176470588235294601e-01,3.215686274509804154e-01,-6.249900000000000455e-01,0.000000000000000000e+00,7.806330000000000213e-01
4.673000000000000070e-03,1.681519999999999890e-02,-2.338870000000000116e-01,6.431372549019608309e-01,5.215686274509804266e-01,3.254901960784313819e-01,-6.514320000000000110e-01,0.000000000000000000e+00,7.587070000000000203e-01
5.874629999999999609e-03,1.675420000000000034e-02,-2.327879999999999949e-01,6.549019607843137303e-01,5.294117647058823595e-01,3.450980392156862142e-01,-5.888980000000000325e-01,-1.096179999999999932e-01,8.007389999999999786e-01
7.068630000000000226e-03,1.667789999999999898e-02,-2.318119999999999903e-01,6.745098039215686736e-01,5.529411764705882693e-01,3.568627450980392246e-01,-4.708289999999999975e-01,-2.357829999999999926e-01,8.501330000000000275e-01
8.285519999999999344e-03,1.667789999999999898e-02,-2.318119999999999903e-01,6.823529411764706065e-01,5.607843137254902022e-01,3.568627450980392246e-01,-3.773099999999999787e-01,0.000000000000000000e+00,9.260869999999999935e-01
9.460450000000000456e-03,1.660160000000000108e-02,-2.308350000000000124e-01,6.862745098039215730e-01,5.529411764705882693e-01,3.450980392156862142e-01,-3.792079999999999895e-01,0.000000000000000000e+00,9.253109999999999946e-01
1.067350000000000070e-02,1.660160000000000108e-02,-2.308350000000000124e-01,6.901960784313725394e-01,5.568627450980392357e-01,3.490196078431371807e-01,-3.802519999999999789e-01,0.000000000000000000e+00,9.248830000000000107e-01
1.183320000000000032e-02,1.654049999999999965e-02,-2.298580000000000068e-01,6.941176470588235059e-01,5.607843137254902022e-01,3.529411764705882026e-01,-3.819980000000000042e-01,0.000000000000000000e+00,9.241629999999999567e-01
1.303859999999999915e-02,1.654049999999999965e-02,-2.298580000000000068e-01,7.137254901960784492e-01,5.803921568627451455e-01,3.725490196078430905e-01,-3.827039999999999886e-01,0.000000000000000000e+00,9.238709999999999978e-01
1.419070000000000054e-02,1.646419999999999828e-02,-2.288820000000000021e-01,7.098039215686274828e-01,5.764705882352940680e-01,3.686274509803921795e-01,-3.837639999999999940e-01,0.000000000000000000e+00,9.234310000000000018e-01
1.538849999999999940e-02,1.646419999999999828e-02,-2.288820000000000021e-01,6.901960784313725394e-01,5.568627450980392357e-01,3.490196078431371807e-01,0.000000000000000000e+00,0.000000000000000000e+00,1.000000000000000000e+00
1.658629999999999827e-02,1.646419999999999828e-02,-2.288820000000000021e-01,6.784313725490196401e-01,5.490196078431373028e-01,3.294117647058822929e-01,0.000000000000000000e+00,0.000000000000000000e+00,1.000000000000000000e+00
1.779170000000000057e-02,1.646419999999999828e-02,-2.288820000000000021e-01,6.627450980392156632e-01,5.333333333333333259e-01,3.137254901960784270e-01,0.000000000000000000e+00,0.000000000000000000e+00,1.000000000000000000e+00
1.899719999999999881e-02,1.646419999999999828e-02,-2.288820000000000021e-01,6.627450980392156632e-01,5.333333333333333259e-01,3.137254901960784270e-01,-4.023990000000000067e-01,-4.041040000000000187e-01,8.214470000000000383e-01
2.011109999999999981e-02,1.638790000000000038e-02,-2.277830000000000132e-01,6.352941176470587870e-01,5.058823529411764497e-01,2.862745098039214953e-01,-4.042520000000000002e-01,-4.059719999999999995e-01,8.196139999999999537e-01
2.130129999999999871e-02,1.638790000000000038e-02,-2.277830000000000132e-01,6.156862745098039547e-01,4.823529411764705954e-01,2.470588235294116919e-01,0.000000000000000000e+00,0.000000000000000000e+00,1.000000000000000000e+00
2.250670000000000101e-02,1.638790000000000038e-02,-2.277830000000000132e-01,6.039215686274509443e-01,4.588235294117646856e-01,2.196078431372548989e-01,0.000000000000000000e+00,0.000000000000000000e+00,1.000000000000000000e+00
2.369689999999999991e-02,1.638790000000000038e-02,-2.277830000000000132e-01,5.764705882352940680e-01,4.313725490196078094e-01,2.000000000000000111e-01,0.000000000000000000e+00,0.000000000000000000e+00,1.000000000000000000e+00
2.490229999999999874e-02,1.638790000000000038e-02,-2.277830000000000132e-01,6.196078431372549211e-01,4.745098039215686070e-01,2.431372549019606977e-01,0.000000000000000000e+00,0.000000000000000000e+00,1.000000000000000000e+00
2.609250000000000111e-02,1.638790000000000038e-02,-2.277830000000000132e-01,6.784313725490196401e-01,5.333333333333333259e-01,3.019607843137254166e-01,-3.942899999999999738e-01,0.000000000000000000e+00,9.189859999999999696e-01
2.717589999999999936e-02,1.631159999999999902e-02,-2.268070000000000086e-01,6.980392156862744724e-01,5.607843137254902022e-01,3.372549019607842813e-01,-3.950370000000000270e-01,0.000000000000000000e+00,9.186649999999999539e-01
2.836610000000000173e-02,1.631159999999999902e-02,-2.268070000000000086e-01,7.176470588235294157e-01,5.803921568627451455e-01,3.568627450980392246e-01,0.000000000000000000e+00,0.000000000000000000e+00,1.000000000000000000e+00
2.955630000000000063e-02,1.631159999999999902e-02,-2.268070000000000086e-01,7.294117647058823151e-01,5.882352941176470784e-01,3.843137254901961009e-01,0.000000000000000000e+00,0.000000000000000000e+00,1.000000000000000000e+00
3.074649999999999953e-02,1.631159999999999902e-02,-2.268070000000000086e-01,7.333333333333332815e-01,5.999999999999999778e-01,3.921568627450979783e-01,-3.991819999999999813e-01,0.000000000000000000e+00,9.168720000000000203e-01
3.179930000000000256e-02,1.625060000000000046e-02,-2.258300000000000030e-01,7.411764705882353255e-01,6.078431372549019107e-01,4.000000000000000222e-01,-2.638159999999999950e-01,2.587430000000000008e-01,9.292219999999999924e-01
3.295900000000000218e-02,1.625060000000000046e-02,-2.258300000000000030e-01,7.411764705882353255e-01,6.196078431372549211e-01,4.156862745098038880e-01,0.000000000000000000e+00,3.713910000000000267e-01,9.284769999999999968e-01
3.414919999999999761e-02,1.625060000000000046e-02,-2.258300000000000030e-01,7.333333333333332815e-01,6.196078431372549211e-01,4.196078431372549100e-01,-1.347589999999999899e-01,1.365089999999999915e-01,9.814300000000000246e-01
3.533939999999999998e-02,1.625060000000000046e-02,-2.258300000000000030e-01,7.372549019607843590e-01,6.235294117647058876e-01,4.235294117647058765e-01,0.000000000000000000e+00,0.000000000000000000e+00,1.000000000000000000e+00
3.652949999999999947e-02,1.625060000000000046e-02,-2.258300000000000030e-01,7.254901960784313486e-01,6.117647058823529882e-01,4.117647058823529216e-01,0.000000000000000000e+00,0.000000000000000000e+00,1.000000000000000000e+00
3.771970000000000184e-02,1.625060000000000046e-02,-2.258300000000000030e-01,7.294117647058823151e-01,6.156862745098039547e-01,4.156862745098038880e-01,0.000000000000000000e+00,0.000000000000000000e+00,1.000000000000000000e+00
3.890989999999999727e-02,1.625060000000000046e-02,-2.258300000000000030e-01,7.254901960784313486e-01,6.078431372549019107e-01,4.196078431372549100e-01,1.245310000000000028e-01,2.522960000000000202e-01,9.596029999999999838e-01
4.010009999999999963e-02,1.625060000000000046e-02,-2.258300000000000030e-01,7.137254901960784492e-01,5.999999999999999778e-01,4.000000000000000222e-01,2.195229999999999959e-01,4.390470000000000206e-01,8.712330000000000352e-01
4.147340000000000054e-02,1.631159999999999902e-02,-2.268070000000000086e-01,7.137254901960784492e-01,5.921568627450980449e-01,3.882352941176470118e-01,3.289460000000000162e-01,3.296499999999999986e-01,8.849439999999999529e-01
4.266360000000000291e-02,1.631159999999999902e-02,-2.268070000000000086e-01,7.058823529411765163e-01,5.843137254901961120e-01,3.725490196078430905e-01,0.000000000000000000e+00,0.000000000000000000e+00,1.000000000000000000e+00
4.385379999999999834e-02,1.631159999999999902e-02,-2.268070000000000086e-01,7.098039215686274828e-01,5.882352941176470784e-01,3.764705882352941124e-01,0.000000000000000000e+00,0.000000000000000000e+00,1.000000000000000000e+00
4.504389999999999783e-02,1.631159999999999902e-02,-2.268070000000000086e-01,7.058823529411765163e-01,5.843137254901961120e-01,3.725490196078430905e-01,4.235570000000000168e-01,2.148380000000000012e-01,8.800249999999999462e-01
4.644779999999999742e-02,1.638790000000000038e-02,-2.277830000000000132e-01,6.823529411764706065e-01,5.607843137254902022e-01,3.490196078431371807e-01,2.446069999999999911e-01,1.254389999999999949e-01,9.614740000000000508e-01
4.763789999999999691e-02,1.638790000000000038e-02,-2.277830000000000132e-01,6.823529411764706065e-01,5.450980392156862253e-01,3.294117647058822929e-01,3.906399999999999872e-01,0.000000000000000000e+00,9.205440000000000289e-01
4.904170000000000057e-02,1.646419999999999828e-02,-2.288820000000000021e-01,6.549019607843137303e-01,5.176470588235294601e-01,3.019607843137254166e-01,3.893510000000000026e-01,0.000000000000000000e+00,9.210890000000000466e-01
5.023190000000000294e-02,1.646419999999999828e-02,-2.288820000000000021e-01,6.274509803921568540e-01,4.901960784313724728e-01,2.745098039215685959e-01,3.490260000000000029e-01,0.000000000000000000e+00,9.371129999999999738e-01
5.166629999999999834e-02,1.654049999999999965e-02,-2.298580000000000068e-01,6.117647058823529882e-01,4.745098039215686070e-01,2.588235294117646745e-01,5.627910000000000412e-01,0.000000000000000000e+00,8.265989999999999727e-01
5.310059999999999780e-02,1.660160000000000108e-02,-2.308350000000000124e-01,5.999999999999999778e-01,4.627450980392157076e-01,2.470588235294116919e-01,3.452049999999999841e-01,0.000000000000000000e+00,9.385270000000000001e-01
5.432130000000000292e-02,1.660160000000000108e-02,-2.308350000000000124e-01,5.764705882352940680e-01,4.431372549019607088e-01,2.352941176470587925e-01,3.414559999999999818e-01,0.000000000000000000e+00,9.398980000000000112e-01
5.578609999999999819e-02,1.667789999999999898e-02,-2.318119999999999903e-01,5.764705882352940680e-01,4.431372549019607088e-01,2.352941176470587925e-01,4.262509999999999910e-01,-1.068970000000000059e-01,8.982670000000000377e-01
2.233510000000000183e-03,1.573180000000000064e-02,-2.358399999999999941e-01,6.313725490196078205e-01,5.215686274509804266e-01,3.411764705882353033e-01,-6.220200000000000173e-01,0.000000000000000000e+00,7.830009999999999470e-01
3.458020000000000017e-03,1.565549999999999928e-02,-2.348629999999999884e-01,6.078431372549019107e-01,4.901960784313724728e-01,3.098039215686274050e-01,-6.249909999999999632e-01,0.000000000000000000e+00,7.806319999999999926e-01
4.673000000000000070e-03,1.559450000000000072e-02,-2.338870000000000116e-01,6.156862745098039547e-01,4.980392156862745168e-01,3.176470588235293935e-01,-6.514560000000000350e-01,0.000000000000000000e+00,7.586859999999999715e-01
5.874629999999999609e-03,1.553339999999999929e-02,-2.327879999999999949e-01,6.470588235294117974e-01,5.294117647058823595e-01,3.411764705882353033e-01,-4.121489999999999876e-01,0.000000000000000000e+00,9.111169999999999547e-01
7.099150000000000252e-03,1.553339999999999929e-02,-2.327879999999999949e-01,6.549019607843137303e-01,5.333333333333333259e-01,3.372549019607842813e-01,-4.703080000000000038e-01,-2.351540000000000019e-01,8.505960000000000187e-01
8.285519999999999344e-03,1.546480000000000077e-02,-2.318119999999999903e-01,6.705882352941175961e-01,5.490196078431373028e-01,3.450980392156862142e-01,-5.661030000000000229e-01,-1.132920000000000038e-01,8.165120000000000156e-01
9.460450000000000456e-03,1.539609999999999937e-02,-2.308350000000000124e-01,6.745098039215686736e-01,5.529411764705882693e-01,3.411764705882353033e-01,-3.785180000000000211e-01,0.000000000000000000e+00,9.255940000000000278e-01
1.067350000000000070e-02,1.539609999999999937e-02,-2.308350000000000124e-01,6.745098039215686736e-01,5.568627450980392357e-01,3.333333333333333148e-01,-3.805999999999999939e-01,0.000000000000000000e+00,9.247400000000000064e-01
1.183320000000000032e-02,1.532750000000000085e-02,-2.298580000000000068e-01,6.823529411764706065e-01,5.529411764705882693e-01,3.254901960784313819e-01,-3.816490000000000160e-01,0.000000000000000000e+00,9.243069999999999897e-01
1.303859999999999915e-02,1.532750000000000085e-02,-2.298580000000000068e-01,6.823529411764706065e-01,5.529411764705882693e-01,3.254901960784313819e-01,-2.641220000000000234e-01,-1.324780000000000124e-01,9.553479999999999750e-01
1.419070000000000054e-02,1.525879999999999945e-02,-2.288820000000000021e-01,6.823529411764706065e-01,5.529411764705882693e-01,3.254901960784313819e-01,-4.807759999999999811e-01,-2.403879999999999906e-01,8.432479999999999976e-01
1.538849999999999940e-02,1.525879999999999945e-02,-2.288820000000000021e-01,6.862745098039215730e-01,5.568627450980392357e-01,3.372549019607842813e-01,0.000000000000000000e+00,0.000000000000000000e+00,1.000000000000000000e+00
1.658629999999999827e-02,1.525879999999999945e-02,-2.288820000000000021e-01,6.588235294117646967e-01,5.294117647058823595e-01,3.098039215686274050e-01,0.000000000000000000e+00,0.000000000000000000e+00,1.000000000000000000e+00
1.779170000000000057e-02,1.525879999999999945e-02,-2.288820000000000021e-01,6.509803921568627638e-01,5.215686274509804266e-01,3.019607843137254166e-01,0.000000000000000000e+00,0.000000000000000000e+00,1.000000000000000000e+00
1.899719999999999881e-02,1.525879999999999945e-02,-2.288820000000000021e-01,6.470588235294117974e-01,5.176470588235294601e-01,2.980392156862745057e-01,0.000000000000000000e+00,0.000000000000000000e+00,1.000000000000000000e+00
2.020260000000000111e-02,1.525879999999999945e-02,-2.288820000000000021e-01,6.313725490196078205e-01,4.980392156862745168e-01,2.627450980392156965e-01,-4.030670000000000086e-01,-4.022109999999999852e-01,8.220480000000000009e-01
2.130129999999999871e-02,1.519779999999999916e-02,-2.277830000000000132e-01,5.960784313725490113e-01,4.509803921568626972e-01,2.196078431372548989e-01,-2.627240000000000131e-01,-5.271270000000000122e-01,8.081540000000000390e-01
2.250670000000000101e-02,1.519779999999999916e-02,-2.277830000000000132e-01,5.450980392156862253e-01,3.921568627450979783e-01,1.607843137254902077e-01,-1.490339999999999998e-01,-2.980670000000000264e-01,9.428389999999999826e-01
2.369689999999999991e-02,1.519779999999999916e-02,-2.277830000000000132e-01,5.254901960784313930e-01,3.647058823529411020e-01,1.372549019607842979e-01,0.000000000000000000e+00,0.000000000000000000e+00,1.000000000000000000e+00
2.490229999999999874e-02,1.519779999999999916e-02,-2.277830000000000132e-01,6.117647058823529882e-01,4.588235294117646856e-01,2.274509803921568041e-01,0.000000000000000000e+00,0.000000000000000000e+00,1.000000000000000000e+00
2.609250000000000111e-02,1.519779999999999916e-02,-2.277830000000000132e-01,6.666666666666666297e-01,5.215686274509804266e-01,2.901960784313725727e-01,-3.946629999999999860e-01,0.000000000000000000e+00,9.188260000000000316e-01
2.717589999999999936e-02,1.512909999999999949e-02,-2.268070000000000086e-01,7.058823529411765163e-01,5.686274509803921351e-01,3.450980392156862142e-01,-3.946629999999999860e-01,0.000000000000000000e+00,9.188260000000000316e-01
2.836610000000000173e-02,1.512909999999999949e-02,-2.268070000000000086e-01,7.254901960784313486e-01,5.882352941176470784e-01,3.647058823529411020e-01,0.000000000000000000e+00,0.000000000000000000e+00,1.000000000000000000e+00
2.955630000000000063e-02,1.512909999999999949e-02,-2.268070000000000086e-01,7.333333333333332815e-01,6.039215686274509443e-01,3.843137254901961009e-01,-1.360860000000000125e-01,1.360860000000000125e-01,9.813060000000000116e-01
3.074649999999999953e-02,1.512909999999999949e-02,-2.268070000000000086e-01,7.333333333333332815e-01,5.999999999999999778e-01,3.921568627450979783e-01,-2.592800000000000105e-01,2.609529999999999905e-01,9.298800000000000399e-01
3.179930000000000256e-02,1.506039999999999983e-02,-2.258300000000000030e-01,7.372549019607843590e-01,6.039215686274509443e-01,3.960784313725490002e-01,-4.037959999999999883e-01,0.000000000000000000e+00,9.148490000000000233e-01
3.295900000000000218e-02,1.506039999999999983e-02,-2.258300000000000030e-01,7.215686274509803821e-01,5.882352941176470784e-01,3.803921568627450789e-01,0.000000000000000000e+00,0.000000000000000000e+00,1.000000000000000000e+00
3.414919999999999761e-02,1.506039999999999983e-02,-2.258300000000000030e-01,7.333333333333332815e-01,6.117647058823529882e-01,4.078431372549018996e-01,0.000000000000000000e+00,0.000000000000000000e+00,1.000000000000000000e+00
3.533939999999999998e-02,1.506039999999999983e-02,-2.258300000000000030e-01,7.372549019607843590e-01,6.156862745098039547e-01,4.196078431372549100e-01,0.000000000000000000e+00,0.000000000000000000e+00,1.000000000000000000e+00
3.652949999999999947e-02,1.506039999999999983e-02,-2.258300000000000030e-01,7.254901960784313486e-01,6.117647058823529882e-01,4.117647058823529216e-01,0.000000000000000000e+00,0.000000000000000000e+00,1.000000000000000000e+00
3.771970000000000184e-02,1.506039999999999983e-02,-2.258300000000000030e-01,7.215686274509803821e-01,6.078431372549019107e-01,4.078431372549018996e-01,0.000000000000000000e+00,0.000000000000000000e+00,1.000000000000000000e+00
3.890989999999999727e-02,1.506039999999999983e-02,-2.258300000000000030e-01,7.098039215686274828e-01,5.882352941176470784e-01,3.921568627450979783e-01,0.000000000000000000e+00,0.000000000000000000e+00,1.000000000000000000e+00
4.010009999999999963e-02,1.506039999999999983e-02,-2.258300000000000030e-01,7.058823529411765163e-01,5.843137254901961120e-01,3.882352941176470118e-01,0.000000000000000000e+00,0.000000000000000000e+00,1.000000000000000000e+00
4.129030000000000200e-02,1.506039999999999983e-02,-2.258300000000000030e-01,7.019607843137254388e-01,5.803921568627451455e-01,3.764705882352941124e-01,4.283629999999999938e-01,2.148700000000000054e-01,8.776880000000000237e-01
4.266360000000000291e-02,1.512909999999999949e-02,-2.268070000000000086e-01,7.058823529411765163e-01,5.843137254901961120e-01,3.803921568627450789e-01,2.477010000000000045e-01,1.242489999999999983e-01,9.608360000000000234e-01
4.385379999999999834e-02,1.512909999999999949e-02,-2.268070000000000086e-01,7.058823529411765163e-01,5.843137254901961120e-01,3.803921568627450789e-01,0.000000000000000000e+00,0.000000000000000000e+00,1.000000000000000000e+00
4.504389999999999783e-02,1.512909999999999949e-02,-2.268070000000000086e-01,6.941176470588235059e-01,5.607843137254902022e-01,3.607843137254901911e-01,3.529360000000000275e-01,0.000000000000000000e+00,9.356480000000000352e-01
4.644779999999999742e-02,1.519779999999999916e-02,-2.277830000000000132e-01,6.823529411764706065e-01,5.490196078431373028e-01,3.411764705882353033e-01,3.517259999999999831e-01,0.000000000000000000e+00,9.361030000000000184e-01
4.763789999999999691e-02,1.519779999999999916e-02,-2.277830000000000132e-01,6.705882352941175961e-01,5.333333333333333259e-01,3.176470588235293935e-01,3.903159999999999963e-01,0.000000000000000000e+00,9.206809999999999716e-01
4.904170000000000057e-02,1.525879999999999945e-02,-2.288820000000000021e-01,6.509803921568627638e-01,5.137254901960783826e-01,2.901960784313725727e-01,3.896709999999999896e-01,0.000000000000000000e+00,9.209540000000000504e-01
5.023190000000000294e-02,1.525879999999999945e-02,-2.288820000000000021e-01,6.274509803921568540e-01,4.901960784313724728e-01,2.666666666666666075e-01,3.487339999999999884e-01,0.000000000000000000e+00,9.372219999999999995e-01
5.166629999999999834e-02,1.532750000000000085e-02,-2.298580000000000068e-01,6.078431372549019107e-01,4.705882352941175850e-01,2.549019607843137081e-01,5.627910000000000412e-01,0.000000000000000000e+00,8.265989999999999727e-01
5.310059999999999780e-02,1.539609999999999937e-02,-2.308350000000000124e-01,5.882352941176470784e-01,4.509803921568626972e-01,2.352941176470587925e-01,4.299310000000000076e-01,-1.083289999999999947e-01,8.963389999999999969e-01
5.432130000000000292e-02,1.539609999999999937e-02,-2.308350000000000124e-01,5.450980392156862253e-01,4.117647058823529216e-01,2.196078431372548989e-01,2.393770000000000064e-01,-2.408830000000000138e-01,9.405710000000000459e-01
5.578609999999999819e-02,1.546480000000000077e-02,-2.318119999999999903e-01,5.294117647058823595e-01,4.039215686274509887e-01,2.274509803921568041e-01,5.546999999999999709e-01,0.000000000000000000e+00,8.320499999999999563e-01
9.994509999999999419e-04,1.455689999999999935e-02,-2.368159999999999987e-01,6.392156862745097534e-01,5.215686274509804266e-01,3.411764705882353033e-01,-6.419160000000000421e-01,0.000000000000000000e+00,7.667749999999999844e-01
2.233510000000000183e-03,1.448819999999999969e-02,-2.358399999999999941e-01,6.274509803921568540e-01,5.098039215686274161e-01,3.294117647058822929e-01,-6.220229999999999926e-01,0.000000000000000000e+00,7.829990000000000006e-01
3.458020000000000017e-03,1.442719999999999940e-02,-2.348629999999999884e-01,5.843137254901961120e-01,4.627450980392157076e-01,2.941176470588234837e-01,-6.249900000000000455e-01,0.000000000000000000e+00,7.806330000000000213e-01
4.673000000000000070e-03,1.436609999999999970e-02,-2.338870000000000116e-01,5.999999999999999778e-01,4.784313725490195734e-01,3.098039215686274050e-01,-6.514560000000000350e-01,0.000000000000000000e+00,7.586859999999999715e-01
5.874629999999999609e-03,1.430509999999999941e-02,-2.327879999999999949e-01,6.156862745098039547e-01,4.901960784313724728e-01,3.137254901960784270e-01,-4.128660000000000108e-01,0.000000000000000000e+00,9.107920000000000460e-01
7.099150000000000252e-03,1.430509999999999941e-02,-2.327879999999999949e-01,6.313725490196078205e-01,5.098039215686274161e-01,3.137254901960784270e-01,-3.750930000000000097e-01,0.000000000000000000e+00,9.269870000000000054e-01
8.285519999999999344e-03,1.424410000000000086e-02,-2.318119999999999903e-01,6.431372549019608309e-01,5.215686274509804266e-01,3.176470588235293935e-01,-6.373600000000000376e-01,0.000000000000000000e+00,7.705659999999999732e-01
9.460450000000000456e-03,1.418299999999999943e-02,-2.308350000000000124e-01,6.627450980392156632e-01,5.294117647058823595e-01,3.294117647058822929e-01,-3.788630000000000053e-01,0.000000000000000000e+00,9.254529999999999701e-01
1.067350000000000070e-02,1.418299999999999943e-02,-2.308350000000000124e-01,6.666666666666666297e-01,5.333333333333333259e-01,3.254901960784313819e-01,-3.802510000000000057e-01,0.000000000000000000e+00,9.248830000000000107e-01
1.183320000000000032e-02,1.412199999999999914e-02,-2.298580000000000068e-01,6.627450980392156632e-01,5.333333333333333259e-01,3.058823529411764941e-01,-3.820000000000000062e-01,0.000000000000000000e+00,9.241629999999999567e-01
1.303859999999999915e-02,1.412199999999999914e-02,-2.298580000000000068e-01,6.627450980392156632e-01,5.333333333333333259e-01,3.058823529411764941e-01,0.000000000000000000e+00,0.000000000000000000e+00,1.000000000000000000e+00
1.425170000000000083e-02,1.412199999999999914e-02,-2.298580000000000068e-01,6.666666666666666297e-01,5.294117647058823595e-01,3.058823529411764941e-01,-4.801770000000000205e-01,-2.404689999999999883e-01,8.435669999999999558e-01
1.538849999999999940e-02,1.406100000000000058e-02,-2.288820000000000021e-01,6.627450980392156632e-01,5.215686274509804266e-01,3.176470588235293935e-01,-2.662359999999999727e-01,-1.326950000000000074e-01,9.547309999999999963e-01
1.658629999999999827e-02,1.406100000000000058e-02,-2.288820000000000021e-01,6.666666666666666297e-01,5.254901960784313930e-01,3.215686274509804154e-01,0.000000000000000000e+00,0.000000000000000000e+00,1.000000000000000000e+00
1.779170000000000057e-02,1.406100000000000058e-02,-2.288820000000000021e-01,6.588235294117646967e-01,5.215686274509804266e-01,2.980392156862745057e-01,0.000000000000000000e+00,0.000000000000000000e+00,1.000000000000000000e+00
