X,Y,Z,R,G,B,nX,nY,nZ
0.020462,0.0325012,-0.231812,0.7725490196078432,0.6666666666666666,0.4588235294117647,0.0,0.35233,0.935876
0.0216827,0.0325012,-0.231812,0.7450980392156863,0.6235294117647059,0.4117647058823529,0.211883,0.423767,0.88064
0.022995,0.0326538,-0.232788,0.7411764705882353,0.611764705882353,0.392156862745098,0.212351,0.423374,0.880716
0.0242157,0.0326538,-0.232788,0.7333333333333333,0.5803921568627451,0.3490196078431372,0.0,0.35233,0.935876
0.0254364,0.0326538,-0.232788,0.7176470588235294,0.5568627450980392,0.3294117647058823,0.0,0.35233,0.935876
0.0266724,0.0326538,-0.232788,0.7058823529411765,0.5529411764705883,0.3529411764705882,0.0,0.351728,0.936102
0.0278931,0.0326538,-0.232788,0.7019607843137254,0.5490196078431373,0.3490196078431372,0.0,0.35233,0.935876
0.0291138,0.0326538,-0.232788,0.6745098039215687,0.5254901960784314,0.3137254901960784,0.0,0.35233,0.935876
0.0303345,0.0326538,-0.232788,0.6549019607843137,0.4823529411764706,0.2431372549019607,-0.250737,0.247602,0.935855
0.0314026,0.0325012,-0.231812,0.7254901960784313,0.5490196078431373,0.3019607843137254,-0.249513,0.249513,0.935674
0.0326233,0.0325012,-0.231812,0.7568627450980392,0.611764705882353,0.3725490196078431,0.0,0.35233,0.935876
0.033844,0.0325012,-0.231812,0.7764705882352941,0.6313725490196078,0.392156862745098,0.0,0.35233,0.935876
0.0350647,0.0325012,-0.231812,0.7607843137254902,0.6352941176470588,0.396078431372549,-0.131024,0.131024,0.982683
0.0362854,0.0325012,-0.231812,0.7215686274509804,0.5882352941176471,0.3529411764705882,-0.131554,0.131554,0.982541
0.0375061,0.0325012,-0.231812,0.6705882352941176,0.5176470588235295,0.2784313725490196,0.0,0.354755,0.934959
0.0387268,0.0325012,-0.231812,0.6196078431372549,0.4666666666666667,0.2352941176470588,0.0,0.355995,0.934488
0.0399475,0.0325012,-0.231812,0.5764705882352941,0.4352941176470588,0.2392156862745098,0.0,0.355995,0.934488
0.0411682,0.0325012,-0.231812,0.5764705882352941,0.4431372549019607,0.2509803921568627,-0.253204,0.253204,0.933689
0.0422058,0.0323792,-0.230835,0.611764705882353,0.4823529411764706,0.3176470588235294,-0.256343,0.253139,0.93285
0.043396,0.0323792,-0.230835,0.6705882352941176,0.5490196078431373,0.3803921568627451,0.0,0.355995,0.934488
0.0446167,0.0323792,-0.230835,0.7058823529411765,0.5803921568627451,0.403921568627451,0.0,0.355995,0.934488
0.0458374,0.0323792,-0.230835,0.7568627450980392,0.6392156862745098,0.4509803921568627,0.211564,0.420484,0.882289
0.0472412,0.0325012,-0.231812,0.7607843137254902,0.6431372549019608,0.4549019607843137,0.317658,0.317658,0.893413
0.0484619,0.0325012,-0.231812,0.7647058823529411,0.6666666666666666,0.4823529411764706,0.0,0.0,1.0
0.0496826,0.0325012,-0.231812,0.7607843137254902,0.6627450980392157,0.4784313725490196,0.31211,0.31211,0.897316
0.0511169,0.0326538,-0.232788,0.7294117647058823,0.6196078431372549,0.4313725490196078,0.31211,0.31211,0.897316
0.0523376,0.0326538,-0.232788,0.6549019607843137,0.5294117647058824,0.3529411764705882,0.341437,0.341437,0.875695
0.0538025,0.0327759,-0.233887,0.6470588235294118,0.5254901960784314,0.3568627450980392,0.342376,0.342376,0.874961
0.0550232,0.0327759,-0.233887,0.6078431372549019,0.4941176470588235,0.3254901960784314,0.0,0.0,1.0
0.0562744,0.0327759,-0.233887,0.5372549019607843,0.4235294117647059,0.2705882352941176,0.226252,0.226252,0.947428
0.00225258,0.0321045,-0.237915,0.6392156862745098,0.5372549019607843,0.3647058823529411,-0.480388,0.242047,0.842995
0.00348854,0.0319519,-0.236816,0.6352941176470588,0.5215686274509804,0.3529411764705882,-0.645053,0.0,0.764138
0.00471115,0.0318298,-0.23584,0.6705882352941176,0.5529411764705883,0.3725490196078431,-0.33303,0.33286,0.88221
0.00595093,0.0318298,-0.23584,0.6980392156862745,0.5803921568627451,0.4,-0.335162,0.33311,0.881308
0.00716019,0.0317078,-0.234863,0.7098039215686275,0.592156862745098,0.403921568627451,-0.630675,0.0,0.776047
0.00835419,0.0315552,-0.233887,0.7372549019607844,0.6196078431372549,0.4313725490196078,-0.345517,0.348022,0.871492
0.00958252,0.0315552,-0.233887,0.7568627450980392,0.6392156862745098,0.4509803921568627,-0.358304,0.359768,0.861502
0.0107651,0.0314331,-0.232788,0.7764705882352941,0.6666666666666666,0.4784313725490196,-0.358979,0.361223,0.860611
0.0119934,0.0314331,-0.232788,0.796078431372549,0.6980392156862745,0.5058823529411764,-0.349428,0.351621,0.868483
0.0131531,0.0312805,-0.231812,0.7803921568627451,0.6823529411764706,0.4901960784313725,-0.244014,0.245549,0.93817
0.0143738,0.0312805,-0.231812,0.7686274509803922,0.6745098039215687,0.4705882352941176,-0.109984,0.445505,0.888498
0.0155945,0.0312805,-0.231812,0.7686274509803922,0.6627450980392157,0.4549019607843137,-0.11254,0.448048,0.886898
0.0167999,0.0312805,-0.231812,0.7764705882352941,0.6705882352941176,0.4627450980392157,0.0,0.357855,0.933777
0.0180206,0.0312805,-0.231812,0.7764705882352941,0.6705882352941176,0.4705882352941176,0.0,0.357855,0.933777
0.0192413,0.0312805,-0.231812,0.796078431372549,0.6862745098039216,0.4980392156862745,0.0,0.35723,0.934016
0.020462,0.0312805,-0.231812,0.7843137254901961,0.6784313725490196,0.4784313725490196,0.0,0.357855,0.933777
0.0216827,0.0312805,-0.231812,0.7725490196078432,0.6666666666666666,0.4588235294117647,0.0,0.35723,0.934016
0.0229034,0.0312805,-0.231812,0.7686274509803922,0.6549019607843137,0.4392156862745098,0.103702,0.515918,0.850338
0.0241089,0.0312805,-0.231812,0.7607843137254902,0.6431372549019608,0.4117647058823529,0.0,0.585978,0.810327
0.0253296,0.0312805,-0.231812,0.7490196078431373,0.6196078431372549,0.392156862745098,0.0,0.585992,0.810317
0.0265503,0.0312805,-0.231812,0.7647058823529411,0.6274509803921569,0.403921568627451,0.0,0.585965,0.810337
0.027771,0.0312805,-0.231812,0.7568627450980392,0.6196078431372549,0.396078431372549,0.0,0.585992,0.810317
0.0289917,0.0312805,-0.231812,0.7490196078431373,0.6039215686274509,0.3725490196078431,0.0,0.585978,0.810327
0.0302124,0.0312805,-0.231812,0.7411764705882353,0.5882352941176471,0.3411764705882353,0.0,0.585978,0.810327
0.0314026,0.0312805,-0.231812,0.7450980392156863,0.596078431372549,0.3372549019607843,-0.114106,0.450717,0.885344
0.0326233,0.0312805,-0.231812,0.7686274509803922,0.6196078431372549,0.3607843137254902,0.0,0.356603,0.934256
0.033844,0.0312805,-0.231812,0.7843137254901961,0.6392156862745098,0.392156862745098,0.0,0.357855,0.933777
0.0350647,0.0312805,-0.231812,0.7803921568627451,0.6549019607843137,0.4078431372549019,0.0,0.357855,0.933777
0.0362854,0.0312805,-0.231812,0.7372549019607844,0.5882352941176471,0.3686274509803922,-0.251199,0.252779,0.934345
0.0373535,0.0311584,-0.230835,0.6666666666666666,0.4941176470588235,0.2627450980392157,-0.254287,0.252688,0.933535
0.0385437,0.0311584,-0.230835,0.5686274509803921,0.4078431372549019,0.1725490196078431,0.0,0.357855,0.933777
0.0397644,0.0311584,-0.230835,0.5411764705882353,0.3803921568627451,0.196078431372549,0.0,0.357855,0.933777
0.0409851,0.0311584,-0.230835,0.5529411764705883,0.4196078431372549,0.2274509803921568,0.0,0.357855,0.933777
0.0422058,0.0311584,-0.230835,0.6235294117647059,0.4980392156862745,0.3215686274509804,-0.134528,0.134528,0.981736
0.043396,0.0311584,-0.230835,0.6941176470588235,0.5647058823529412,0.4,0.0,0.0,1.0
0.0446167,0.0311584,-0.230835,0.7294117647058823,0.6078431372549019,0.4392156862745098,0.0,0.0,1.0
0.0458374,0.0311584,-0.230835,0.7568627450980392,0.6627450980392157,0.4862745098039215,0.0,0.0,1.0
0.0470581,0.0311584,-0.230835,0.7647058823529411,0.6705882352941176,0.5019607843137255,0.319249,0.317914,0.892755
0.0484619,0.0312805,-0.231812,0.7725490196078432,0.6784313725490196,0.5019607843137255,0.316255,0.316255,0.894408
0.0496826,0.0312805,-0.231812,0.7607843137254902,0.6666666666666666,0.4901960784313725,0.0,0.0,1.0
0.0509033,0.0312805,-0.231812,0.7215686274509804,0.6235294117647059,0.4392156862745098,0.409576,0.20543,0.888845
0.0523376,0.0314331,-0.232788,0.6980392156862745,0.5803921568627451,0.4,0.235645,0.117822,0.964671
0.0535889,0.0314331,-0.232788,0.611764705882353,0.4823529411764706,0.3176470588235294,0.341946,0.344796,0.874179
0.0550232,0.0315552,-0.233887,0.6078431372549019,0.4862745098039215,0.3254901960784314,0.227436,0.457714,0.859518
0.0562744,0.0315552,-0.233887,0.5568627450980392,0.4431372549019607,0.2823529411764706,0.0,0.27881,0.960346
0.00224304,0.0307312,-0.236816,0.6470588235294118,0.5333333333333333,0.3647058823529411,-0.213428,0.45146,0.86639
0.00348854,0.0307312,-0.236816,0.6470588235294118,0.5333333333333333,0.3647058823529411,-0.33977,0.344613,0.875099
0.00471115,0.0305939,-0.23584,0.6666666666666666,0.5568627450980392,0.3686274509803922,-0.625592,0.0,0.780151
0.00592422,0.0304718,-0.234863,0.7019607843137254,0.5843137254901961,0.396078431372549,-0.334683,0.335027,0.880764
0.00716019,0.0304718,-0.234863,0.6941176470588235,0.5764705882352941,0.388235294117647,-0.417221,0.417888,0.807029
0.00835419,0.0303345,-0.233887,0.7372549019607844,0.6196078431372549,0.4392156862745098,-0.549376,0.236315,0.801462
0.00954437,0.0302124,-0.232788,0.7607843137254902,0.6509803921568628,0.4705882352941176,-0.360741,0.358591,0.860975
0.0107651,0.0302124,-0.232788,0.792156862745098,0.6941176470588235,0.5098039215686274,-0.349478,0.349478,0.869327
0.01194,0.0300751,-0.231812,0.788235294117647,0.6901960784313725,0.5058823529411764,-0.339919,0.339211,0.87715
0.0131531,0.0300751,-0.231812,0.7764705882352941,0.6784313725490196,0.4941176470588235,-0.110973,0.447403,0.887421
0.0143738,0.0300751,-0.231812,0.7764705882352941,0.6705882352941176,0.4705882352941176,-0.246519,0.247294,0.937056
0.0155258,0.029953,-0.230835,0.7725490196078432,0.6666666666666666,0.4588235294117647,-0.246965,0.247741,0.936821
0.0167389,0.029953,-0.230835,0.7764705882352941,0.6705882352941176,0.4627450980392157,0.0,0.357855,0.933777
0.0179443,0.029953,-0.230835,0.7803921568627451,0.6745098039215687,0.4745098039215686,0.0,0.357855,0.933777
0.019165,0.029953,-0.230835,0.803921568627451,0.6980392156862745,0.4980392156862745,0.0,0.358481,0.933537
0.0203705,0.029953,-0.230835,0.807843137254902,0.6980392156862745,0.5176470588235295,0.0,0.357855,0.933777
0.0215912,0.029953,-0.230835,0.8196078431372549,0.7215686274509804,0.5372549019607843,0.0,0.358481,0.933537
0.0227966,0.029953,-0.230835,0.807843137254902,0.7098039215686275,0.5254901960784314,0.0,0.357855,0.933777
0.0240173,0.029953,-0.230835,0.803921568627451,0.6980392156862745,0.4980392156862745,0.0,0.357855,0.933777
0.0252228,0.029953,-0.230835,0.7843137254901961,0.6784313725490196,0.4705882352941176,0.0,0.357855,0.933777
0.0264435,0.029953,-0.230835,0.7803921568627451,0.6666666666666666,0.4588235294117647,0.0,0.358481,0.933537
0.0276489,0.029953,-0.230835,0.7803921568627451,0.6666666666666666,0.4509803921568627,0.0,0.357855,0.933777
0.0288696,0.029953,-0.230835,0.7686274509803922,0.6588235294117647,0.4313725490196078,-0.113916,0.452817,0.884296
0.0300751,0.029953,-0.230835,0.7686274509803922,0.6392156862745098,0.4117647058823529,0.0,0.590363,0.807138
0.0312805,0.029953,-0.230835,0.7725490196078432,0.6392156862745098,0.403921568627451,0.0,0.590363,0.807138
0.0325012,0.029953,-0.230835,0.7803921568627451,0.6470588235294118,0.4117647058823529,0.104441,0.516982,0.849601
0.0336914,0.029953,-0.230835,0.7843137254901961,0.6509803921568628,0.4156862745098039,0.0,0.357855,0.933777
0.0349121,0.029953,-0.230835,0.7764705882352941,0.6509803921568628,0.4117647058823529,0.0,0.357855,0.933777
0.0361328,0.029953,-0.230835,0.7450980392156863,0.596078431372549,0.3764705882352941,0.0,0.357855,0.933777
0.0373535,0.029953,-0.230835,0.6509803921568628,0.4784313725490196,0.2470588235294117,-0.132302,0.133977,0.982113
0.0385437,0.029953,-0.230835,0.5294117647058824,0.3490196078431372,0.1215686274509803,-0.133975,0.133975,0.981887
0.0397644,0.029953,-0.230835,0.5058823529411764,0.3450980392156862,0.1529411764705882,0.0,0.356618,0.93425
0.0409851,0.029953,-0.230835,0.6745098039215687,0.5450980392156862,0.388235294117647,0.0,0.357855,0.933777
0.0422058,0.029953,-0.230835,0.7137254901960784,0.596078431372549,0.4156862745098039,0.0,0.356608,0.934254
0.043396,0.029953,-0.230835,0.7333333333333333,0.615686274509804,0.4352941176470588,0.0,0.359099,0.933299
0.0446167,0.029953,-0.230835,0.7568627450980392,0.6470588235294118,0.4666666666666667,0.0,0.356618,0.93425
0.0458374,0.029953,-0.230835,0.7725490196078432,0.6784313725490196,0.5098039215686274,0.121486,0.242972,0.962396
0.0470581,0.029953,-0.230835,0.7764705882352941,0.6823529411764706,0.5137254901960784,0.0,0.0,1.0
0.0482483,0.029953,-0.230835,0.7686274509803922,0.6745098039215687,0.4980392156862745,0.317185,0.317185,0.893749
0.0496826,0.0300751,-0.231812,0.7607843137254902,0.6705882352941176,0.4823529411764706,0.315149,0.316468,0.894723
0.0509033,0.0300751,-0.231812,0.7333333333333333,0.6352941176470588,0.4509803921568627,0.238564,0.120032,0.96368
0.0523376,0.0302124,-0.232788,0.6862745098039216,0.5764705882352941,0.396078431372549,0.406702,0.205893,0.890057
0.0535889,0.0302124,-0.232788,0.615686274509804,0.4941176470588235,0.3254901960784314,0.0,0.0,1.0
0.0548096,0.0302124,-0.232788,0.592156862745098,0.4784313725490196,0.3098039215686274,0.133911,0.267822,0.954117
0.0560303,0.0302124,-0.232788,0.5725490196078431,0.4509803921568627,0.2823529411764706,0.0,0.490261,0.871576
0.074585,0.0369568,-0.284912,0.2431372549019607,0.188235294117647,0.1215686274509803,0.0,0.0,1.0
0.00224304,0.02948,-0.236816,0.6509803921568628,0.5490196078431373,0.3764705882352941,-0.444446,0.221541,0.867979
0.00347328,0.0293579,-0.23584,0.6705882352941176,0.5529411764705883,0.3725490196078431,-0.33233,0.33216,0.882738
0.00471115,0.0293579,-0.23584,0.6705882352941176,0.5529411764705883,0.3725490196078431,-0.333772,0.333772,0.881586
0.00592422,0.0292358,-0.234863,0.6941176470588235,0.5764705882352941,0.388235294117647,-0.62828,0.0,0.777987
0.00712967,0.0291138,-0.233887,0.6549019607843137,0.5333333333333333,0.3647058823529411,-0.563111,0.208776,0.799574
0.00831604,0.0289764,-0.232788,0.7137254901960784,0.592156862745098,0.4235294117647059,-0.426811,0.428812,0.796211
0.00954437,0.0289764,-0.232788,0.7568627450980392,0.6431372549019608,0.4745098039215686,-0.350548,0.349071,0.86906
0.0107193,0.0288544,-0.231812,0.7686274509803922,0.6784313725490196,0.4901960784313725,-0.340554,0.339141,0.87693
0.01194,0.0288544,-0.231812,0.7647058823529411,0.6745098039215687,0.4784313725490196,-0.341285,0.341999,0.875535
0.0130997,0.0287323,-0.230835,0.7725490196078432,0.6823529411764706,0.4862745098039215,-0.24681,0.24681,0.937107
0.0143127,0.0287323,-0.230835,0.7686274509803922,0.6745098039215687,0.4705882352941176,0.0,0.358164,0.933659
0.0155258,0.0287323,-0.230835,0.7686274509803922,0.6627450980392157,0.4627450980392157,-0.247702,0.247702,0.936636
0.0167389,0.0287323,-0.230835,0.7725490196078432,0.6666666666666666,0.4666666666666667,0.0,0.35754,0.933898
0.0179443,0.0287323,-0.230835,0.7764705882352941,0.6705882352941176,0.4627450980392157,0.0,0.357855,0.933777
0.019165,0.0287323,-0.230835,0.7843137254901961,0.6784313725490196,0.4784313725490196,0.0,0.357228,0.934017
0.0203705,0.0287323,-0.230835,0.8,0.6901960784313725,0.5019607843137255,0.0,0.357855,0.933777
0.0215912,0.0287323,-0.230835,0.8156862745098039,0.7176470588235294,0.5333333333333333,0.0,0.357855,0.933777
0.0227966,0.0287323,-0.230835,0.8313725490196079,0.7411764705882353,0.5529411764705883,0.0,0.357855,0.933777
0.0240173,0.0287323,-0.230835,0.8274509803921568,0.7372549019607844,0.5490196078431373,0.0,0.357228,0.934017
0.0252228,0.0287323,-0.230835,0.8117647058823529,0.7215686274509804,0.5333333333333333,0.0,0.357855,0.933777
0.0264435,0.0287323,-0.230835,0.8,0.6901960784313725,0.5019607843137255,0.0,0.357228,0.934017
0.0276489,0.0287323,-0.230835,0.796078431372549,0.6862745098039216,0.4980392156862745,0.0,0.357855,0.933777
0.0288696,0.0287323,-0.230835,0.8,0.6941176470588235,0.4941176470588235,-0.251805,0.251805,0.934445
0.0299377,0.0286102,-0.229858,0.8,0.6901960784313725,0.5019607843137255,-0.251811,0.251811,0.934442
0.0311584,0.0286102,-0.229858,0.7843137254901961,0.6745098039215687,0.4862745098039215,0.0,0.358479,0.933538
0.0323486,0.0286102,-0.229858,0.7803921568627451,0.6745098039215687,0.4745098039215686,0.21469,0.42668,0.878551
0.0336914,0.0287323,-0.230835,0.7843137254901961,0.6705882352941176,0.4549019607843137,0.21469,0.42668,0.878551
0.0349121,0.0287323,-0.230835,0.7764705882352941,0.6666666666666666,0.4392156862745098,0.0,0.357855,0.933777
0.0361328,0.0287323,-0.230835,0.7529411764705882,0.615686274509804,0.392156862745098,0.0,0.356603,0.934256
0.0373535,0.0287323,-0.230835,0.7215686274509804,0.5725490196078431,0.3529411764705882,0.0,0.357855,0.933777
0.0385437,0.0287323,-0.230835,0.7137254901960784,0.5647058823529412,0.3529411764705882,-0.254299,0.252699,0.933528
0.0396118,0.0286102,-0.229858,0.7215686274509804,0.5686274509803921,0.3843137254901961,-0.254287,0.252688,0.933535
0.040802,0.0286102,-0.229858,0.7176470588235294,0.592156862745098,0.4156862745098039,0.0,0.357855,0.933777
0.0420227,0.0286102,-0.229858,0.7294117647058823,0.6196078431372549,0.4392156862745098,0.0,0.359099,0.933299
0.0432129,0.0286102,-0.229858,0.7490196078431373,0.6392156862745098,0.4588235294117647,0.0,0.356608,0.934254
0.0444336,0.0286102,-0.229858,0.7686274509803922,0.6666666666666666,0.4941176470588235,0.0,0.359099,0.933299
0.0456238,0.0286102,-0.229858,0.792156862745098,0.6980392156862745,0.5372549019607843,0.210654,0.421308,0.882114
0.0470581,0.0287323,-0.230835,0.792156862745098,0.6980392156862745,0.5372549019607843,0.317185,0.317185,0.893749
0.0482483,0.0287323,-0.230835,0.7725490196078432,0.6784313725490196,0.5098039215686274,0.0,0.0,1.0
0.049469,0.0287323,-0.230835,0.7607843137254902,0.6666666666666666,0.4980392156862745,0.315149,0.316468,0.894723
0.0509033,0.0288544,-0.231812,0.7333333333333333,0.6352941176470588,0.4509803921568627,0.314685,0.316002,0.895051
0.052124,0.0288544,-0.231812,0.6745098039215687,0.5647058823529412,0.3843137254901961,0.312846,0.314144,0.896349
0.0535889,0.0289764,-0.232788,0.6352941176470588,0.5137254901960784,0.3450980392156862,0.310574,0.311863,0.897934
0.0548096,0.0289764,-0.232788,0.5882352941176471,0.4745098039215686,0.3137254901960784,0.0,0.0,1.0
0.0560303,0.0289764,-0.232788,0.5803921568627451,0.4666666666666667,0.3058823529411765,0.0,0.0,1.0
0.0574951,0.0291138,-0.233887,0.5215686274509804,0.4235294117647059,0.2392156862745098,0.0,0.0,0.0
0.074585,0.0354614,-0.284912,0.3098039215686274,0.2274509803921568,0.1058823529411764,0.0,0.0,1.0
0.00223351,0.0281219,-0.23584,0.6588235294117647,0.5450980392156862,0.3764705882352941,0.0,0.247075,0.968996
0.00347328,0.0281219,-0.23584,0.6705882352941176,0.5529411764705883,0.3647058823529411,-0.459407,0.115206,0.880723
0.00469208,0.0279999,-0.234863,0.6980392156862745,0.5803921568627451,0.392156862745098,-0.335131,0.334614,0.88075
0.00592422,0.0279999,-0.234863,0.6941176470588235,0.5764705882352941,0.388235294117647,-0.336151,0.336151,0.879776
0.00712967,0.0278778,-0.233887,0.6745098039215687,0.5568627450980392,0.3764705882352941,-0.655291,0.0,0.755376
0.00831604,0.0277557,-0.232788,0.7294117647058823,0.611764705882353,0.4313725490196078,-0.659022,0.0,0.752124
0.0094986,0.0276337,-0.231812,0.7607843137254902,0.6509803921568628,0.4705882352941176,-0.244174,0.246478,0.937885
0.0107193,0.0276337,-0.231812,0.7725490196078432,0.6745098039215687,0.4901960784313725,-0.471848,0.118332,0.873703
0.0118866,0.0275269,-0.230835,0.7490196078431373,0.6549019607843137,0.4509803921568627,-0.2471,0.246328,0.937158
0.0130997,0.0275269,-0.230835,0.7607843137254902,0.6666666666666666,0.4627450980392157,-0.247482,0.247482,0.936752
0.0143127,0.0275269,-0.230835,0.7607843137254902,0.6549019607843137,0.4549019607843137,0.0,0.359419,0.933176
0.0155258,0.0275269,-0.230835,0.7725490196078432,0.6666666666666666,0.4666666666666667,-0.248309,0.249095,0.936106
0.0166626,0.0274048,-0.229858,0.7725490196078432,0.6666666666666666,0.4666666666666667,-0.248761,0.249548,0.935865
0.017868,0.0274048,-0.229858,0.7568627450980392,0.6509803921568628,0.4509803921568627,0.0,0.359732,0.933056
0.0190735,0.0274048,-0.229858,0.7725490196078432,0.6666666666666666,0.4666666666666667,0.0,0.36036,0.932814
0.0202789,0.0274048,-0.229858,0.7843137254901961,0.6784313725490196,0.4784313725490196,0.0,0.359732,0.933056
0.0214844,0.0274048,-0.229858,0.788235294117647,0.6784313725490196,0.4901960784313725,0.0,0.359732,0.933056
0.0227051,0.0274048,-0.229858,0.788235294117647,0.6784313725490196,0.4901960784313725,0.0,0.359732,0.933056
0.0239105,0.0274048,-0.229858,0.803921568627451,0.7058823529411765,0.5215686274509804,0.0,0.36036,0.932814
0.025116,0.0274048,-0.229858,0.807843137254902,0.7098039215686275,0.5254901960784314,-0.113557,0.454229,0.883618
0.0263214,0.0274048,-0.229858,0.796078431372549,0.6980392156862745,0.5137254901960784,0.0,0.592567,0.805521
0.0275269,0.0274048,-0.229858,0.803921568627451,0.7058823529411765,0.5215686274509804,0.0,0.592567,0.805521
0.0287323,0.0274048,-0.229858,0.803921568627451,0.7058823529411765,0.5215686274509804,0.0,0.592567,0.805521
0.0299377,0.0274048,-0.229858,0.796078431372549,0.6980392156862745,0.5137254901960784,-0.113288,0.454585,0.88347
0.0311584,0.0274048,-0.229858,0.796078431372549,0.6980392156862745,0.5137254901960784,0.0,0.357839,0.933783
0.0323486,0.0274048,-0.229858,0.792156862745098,0.6941176470588235,0.5098039215686274,0.0,0.360989,0.93257
0.0335693,0.0274048,-0.229858,0.7803921568627451,0.6823529411764706,0.4901960784313725,0.104047,0.518918,0.848468
0.0347595,0.0274048,-0.229858,0.7843137254901961,0.6784313725490196,0.4784313725490196,0.0,0.592567,0.805521
0.0359802,0.0274048,-0.229858,0.788235294117647,0.6745098039215687,0.4588235294117647,0.0,0.592567,0.805521
0.0371704,0.0274048,-0.229858,0.7686274509803922,0.6549019607843137,0.4470588235294118,0.0,0.592567,0.805521
0.0383911,0.0274048,-0.229858,0.7568627450980392,0.6431372549019608,0.4352941176470588,0.0,0.592567,0.805521
0.0396118,0.0274048,-0.229858,0.7450980392156863,0.6235294117647059,0.4196078431372549,-0.113914,0.455657,0.882836
0.040802,0.0274048,-0.229858,0.7450980392156863,0.6235294117647059,0.4274509803921568,0.0,0.360989,0.93257
0.0420227,0.0274048,-0.229858,0.7529411764705882,0.6431372549019608,0.4627450980392157,0.122605,0.245211,0.961686
0.0432129,0.0274048,-0.229858,0.7647058823529411,0.6627450980392157,0.4901960784313725,0.0,0.0,1.0
0.0444336,0.0274048,-0.229858,0.796078431372549,0.7137254901960784,0.5490196078431373,0.0,0.0,1.0
0.0456238,0.0274048,-0.229858,0.7647058823529411,0.6823529411764706,0.5176470588235295,0.0,0.0,1.0
0.0468445,0.0274048,-0.229858,0.7647058823529411,0.6823529411764706,0.5098039215686274,0.31654,0.317875,0.893732
0.0482483,0.0275269,-0.230835,0.7686274509803922,0.6745098039215687,0.4980392156862745,0.319072,0.319072,0.892405
0.049469,0.0275269,-0.230835,0.7490196078431373,0.6509803921568628,0.4666666666666667,0.0,0.0,1.0
0.0506897,0.0275269,-0.230835,0.7254901960784313,0.6078431372549019,0.4196078431372549,0.315615,0.316935,0.894393
0.052124,0.0276337,-0.231812,0.6784313725490196,0.5607843137254902,0.3803921568627451,0.315615,0.316935,0.894393
0.0533447,0.0276337,-0.231812,0.6509803921568628,0.5333333333333333,0.3529411764705882,0.312394,0.313701,0.896662
0.0548096,0.0277557,-0.232788,0.592156862745098,0.4784313725490196,0.3098039215686274,0.207944,0.418504,0.884089
0.0560303,0.0277557,-0.232788,0.5803921568627451,0.4666666666666667,0.2980392156862745,0.0,0.250826,0.968032
0.074585,0.0339661,-0.284912,0.4549019607843137,0.3686274509803922,0.2235294117647059,0.0,0.0,1.0
0.00223351,0.026886,-0.23584,0.6588235294117647,0.5490196078431373,0.3607843137254902,-0.241955,0.239742,0.940203
0.00347328,0.026886,-0.23584,0.6901960784313725,0.5764705882352941,0.3764705882352941,-0.240535,0.24072,0.940317
0.00469208,0.0267639,-0.234863,0.6941176470588235,0.5803921568627451,0.3803921568627451,-0.626783,0.0,0.779194
0.00590134,0.0266571,-0.233887,0.6941176470588235,0.5764705882352941,0.388235294117647,-0.348563,0.346756,0.870784
0.00712967,0.0266571,-0.233887,0.7058823529411765,0.5803921568627451,0.396078431372549,-0.358773,0.359851,0.861272
0.00831604,0.026535,-0.232788,0.7411764705882353,0.6235294117647059,0.4352941176470588,-0.658933,0.0,0.752201
0.0094986,0.0264282,-0.231812,0.7607843137254902,0.6509803921568628,0.4627450980392157,-0.470337,0.117953,0.874568
0.0107193,0.0264282,-0.231812,0.7686274509803922,0.6705882352941176,0.4784313725490196,-0.245491,0.247822,0.937186
0.0118866,0.0263062,-0.230835,0.7607843137254902,0.6666666666666666,0.4627450980392157,-0.472987,0.11862,0.873048
0.0130997,0.0263062,-0.230835,0.7529411764705882,0.6588235294117647,0.4549019607843137,-0.248289,0.246738,0.936735
0.0142517,0.0261993,-0.229858,0.7529411764705882,0.6470588235294118,0.4470588235294118,-0.249036,0.246701,0.936547
0.0154572,0.0261993,-0.229858,0.7686274509803922,0.6627450980392157,0.4549019607843137,0.0,0.35817,0.933657
0.0166626,0.0261993,-0.229858,0.7607843137254902,0.6549019607843137,0.4470588235294118,-0.130893,0.130893,0.982718
0.017868,0.0261993,-0.229858,0.7686274509803922,0.6627450980392157,0.4549019607843137,-0.132938,0.131276,0.982392
0.0190735,0.0261993,-0.229858,0.7568627450980392,0.6509803921568628,0.4431372549019607,0.0,0.359732,0.933056
0.0202789,0.0261993,-0.229858,0.7686274509803922,0.6627450980392157,0.4549019607843137,0.0,0.359102,0.933298
0.0214844,0.0261993,-0.229858,0.788235294117647,0.6784313725490196,0.4901960784313725,0.0,0.359732,0.933056
0.0227051,0.0261993,-0.229858,0.788235294117647,0.6784313725490196,0.4901960784313725,0.0,0.359107,0.933296
0.0239105,0.0261993,-0.229858,0.796078431372549,0.6980392156862745,0.5058823529411764,0.0,0.359732,0.933056
0.025116,0.0261993,-0.229858,0.7803921568627451,0.6823529411764706,0.4901960784313725,-0.252886,0.251286,0.934293
0.0261993,0.0260773,-0.228882,0.7803921568627451,0.6823529411764706,0.4901960784313725,-0.252272,0.252272,0.934194
0.0274048,0.0260773,-0.228882,0.792156862745098,0.6941176470588235,0.5019607843137255,0.0,0.359732,0.933056
0.0286102,0.0260773,-0.228882,0.796078431372549,0.6980392156862745,0.5058823529411764,0.0,0.359732,0.933056
0.0298157,0.0260773,-0.228882,0.788235294117647,0.6901960784313725,0.4980392156862745,0.0,0.359732,0.933056
0.0310211,0.0260773,-0.228882,0.7803921568627451,0.6823529411764706,0.4901960784313725,0.0,0.361636,0.932319
0.032196,0.0260773,-0.228882,0.8,0.7019607843137254,0.5176470588235295,0.0,0.358468,0.933542
0.0334167,0.0260773,-0.228882,0.796078431372549,0.6980392156862745,0.5137254901960784,0.0,0.360989,0.93257
0.0346069,0.0260773,-0.228882,0.796078431372549,0.6980392156862745,0.5137254901960784,0.0,0.358473,0.93354
0.0358276,0.0260773,-0.228882,0.796078431372549,0.6980392156862745,0.5137254901960784,0.0,0.360989,0.93257
0.0370178,0.0260773,-0.228882,0.792156862745098,0.6941176470588235,0.5098039215686274,0.0,0.359732,0.933056
0.038208,0.0260773,-0.228882,0.7803921568627451,0.6823529411764706,0.4980392156862745,0.0,0.359732,0.933056
0.0394287,0.0260773,-0.228882,0.7764705882352941,0.6784313725490196,0.4941176470588235,0.0,0.360989,0.93257
0.0406189,0.0260773,-0.228882,0.7764705882352941,0.6784313725490196,0.4941176470588235,0.0,0.358473,0.93354
0.0418396,0.0260773,-0.228882,0.7843137254901961,0.6901960784313725,0.5215686274509804,0.212503,0.425005,0.879894
0.0432129,0.0261993,-0.229858,0.807843137254902,0.7254901960784313,0.5607843137254902,0.213433,0.424165,0.880074
0.0444336,0.0261993,-0.229858,0.803921568627451,0.7254901960784313,0.5764705882352941,0.0,0.359732,0.933056
0.0456238,0.0261993,-0.229858,0.788235294117647,0.7137254901960784,0.5450980392156862,0.123868,0.244639,0.96167
0.0468445,0.0261993,-0.229858,0.7725490196078432,0.6980392156862745,0.5294117647058824,0.0,0.0,1.0
0.0480652,0.0261993,-0.229858,0.7647058823529411,0.6666666666666666,0.4823529411764706,0.319726,0.318388,0.892415
0.049469,0.0263062,-0.230835,0.7490196078431373,0.6509803921568628,0.4588235294117647,0.317839,0.316509,0.893756
0.0506897,0.0263062,-0.230835,0.7215686274509804,0.6078431372549019,0.4078431372549019,0.0,0.0,1.0
0.0519104,0.0263062,-0.230835,0.6784313725490196,0.5568627450980392,0.3607843137254902,0.412136,0.207364,0.887211
0.0533447,0.0264282,-0.231812,0.6470588235294118,0.5294117647058824,0.3411764705882353,0.238996,0.120249,0.963546
0.0545654,0.0264282,-0.231812,0.615686274509804,0.4980392156862745,0.3176470588235294,0.119596,0.242219,0.962822
0.0557861,0.0264282,-0.231812,0.592156862745098,0.4745098039215686,0.2941176470588235,0.0,0.295383,0.955379
0.0570068,0.0264282,-0.231812,0.5529411764705883,0.4352941176470588,0.2470588235294117,0.0,0.0,1.0
0.074585,0.0324707,-0.284912,0.4823529411764706,0.3803921568627451,0.2156862745098039,0.0,0.0,1.0
0.0760498,0.0324707,-0.284912,0.196078431372549,0.1803921568627451,0.1450980392156863,0.0,0.0,1.0
0.0775757,0.0324707,-0.284912,0.1607843137254902,0.1647058823529411,0.1490196078431372,0.0,0.0,1.0
0.00223351,0.0256348,-0.23584,0.6745098039215687,0.5568627450980392,0.3686274509803922,-0.623506,0.0,0.781818
0.00345802,0.025528,-0.234863,0.6941176470588235,0.5803921568627451,0.3803921568627451,-0.265778,0.396222,0.878846
0.00469208,0.025528,-0.234863,0.6980392156862745,0.5843137254901961,0.3843137254901961,-0.336553,0.3369,0.879335
0.00590134,0.0254211,-0.233887,0.7058823529411765,0.592156862745098,0.392156862745098,-0.652914,0.0,0.757432
0.00709915,0.0253143,-0.232788,0.7176470588235294,0.596078431372549,0.4,-0.360575,0.359064,0.860848
0.00831604,0.0253143,-0.232788,0.7529411764705882,0.6392156862745098,0.4392156862745098,-0.351706,0.350255,0.868115
0.0094986,0.0252075,-0.231812,0.7568627450980392,0.6470588235294118,0.4588235294117647,-0.637976,0.0,0.770057
0.0106735,0.0251007,-0.230835,0.7725490196078432,0.6627450980392157,0.4745098039215686,-0.246654,0.245883,0.937392
0.0118866,0.0251007,-0.230835,0.7529411764705882,0.6588235294117647,0.4549019607843137,-0.474521,0.119005,0.872162
0.0130386,0.0249786,-0.229858,0.7254901960784313,0.6196078431372549,0.4196078431372549,-0.247116,0.24868,0.936532
0.0142517,0.0249786,-0.229858,0.7568627450980392,0.6431372549019608,0.4431372549019607,-0.132239,0.131412,0.982468
0.0154572,0.0249786,-0.229858,0.7568627450980392,0.6509803921568628,0.4509803921568627,-0.131554,0.131554,0.982541
0.0166626,0.0249786,-0.229858,0.7568627450980392,0.6509803921568628,0.4431372549019607,0.0,0.361628,0.932322
0.017868,0.0249786,-0.229858,0.7607843137254902,0.6549019607843137,0.4470588235294118,-0.250426,0.250426,0.935186
0.0189972,0.0248718,-0.228882,0.7568627450980392,0.6509803921568628,0.4431372549019607,-0.250426,0.250426,0.935186
0.0202026,0.0248718,-0.228882,0.7450980392156863,0.6392156862745098,0.4313725490196078,0.0,0.362259,0.932078
0.0213928,0.0248718,-0.228882,0.7764705882352941,0.6705882352941176,0.4705882352941176,0.0,0.361628,0.932322
0.0225983,0.0248718,-0.228882,0.7764705882352941,0.6705882352941176,0.4705882352941176,0.0,0.362253,0.93208
0.0238037,0.0248718,-0.228882,0.7803921568627451,0.6745098039215687,0.4745098039215686,0.0,0.361628,0.932322
0.0250092,0.0248718,-0.228882,0.7725490196078432,0.6784313725490196,0.4745098039215686,0.0,0.362259,0.932078
0.0261993,0.0248718,-0.228882,0.7803921568627451,0.6862745098039216,0.4823529411764706,-0.267221,0.267422,0.925785
0.0274048,0.0248718,-0.228882,0.7803921568627451,0.6862745098039216,0.4823529411764706,0.0,0.40199,0.915644
0.0286102,0.0248718,-0.228882,0.7764705882352941,0.6823529411764706,0.4784313725490196,0.0,0.401303,0.915945
0.0298157,0.0248718,-0.228882,0.7764705882352941,0.6705882352941176,0.4705882352941176,0.0,0.40199,0.915644
0.0310211,0.0248718,-0.228882,0.7686274509803922,0.6588235294117647,0.4705882352941176,0.0,0.401297,0.915948
0.032196,0.0248718,-0.228882,0.7843137254901961,0.6745098039215687,0.4862745098039215,0.0,0.402682,0.91534
0.0334167,0.0248718,-0.228882,0.803921568627451,0.6941176470588235,0.5137254901960784,0.0,0.400618,0.916245
0.0346069,0.0248718,-0.228882,0.803921568627451,0.7019607843137254,0.5294117647058824,0.0,0.403359,0.915042
0.0358276,0.0248718,-0.228882,0.8156862745098039,0.7137254901960784,0.5411764705882353,0.0,0.400618,0.916245
0.0370178,0.0248718,-0.228882,0.8235294117647058,0.7215686274509804,0.5490196078431373,0.0,0.40199,0.915644
0.038208,0.0248718,-0.228882,0.8117647058823529,0.7176470588235294,0.5490196078431373,0.0,0.40199,0.915644
0.0394287,0.0248718,-0.228882,0.8352941176470589,0.7490196078431373,0.6039215686274509,0.136141,0.275773,0.951533
0.0406189,0.0248718,-0.228882,0.792156862745098,0.7098039215686275,0.5450980392156862,0.0,0.0,1.0
0.0418396,0.0248718,-0.228882,0.8196078431372549,0.7450980392156863,0.5764705882352941,0.0,0.0,1.0
0.0430298,0.0248718,-0.228882,0.8117647058823529,0.7333333333333333,0.5764705882352941,0.124807,0.246455,0.961084
0.04422,0.0248718,-0.228882,0.807843137254902,0.7294117647058823,0.5725490196078431,0.0,0.361628,0.932322
0.0454407,0.0248718,-0.228882,0.7725490196078432,0.6980392156862745,0.5215686274509804,0.213125,0.42625,0.879141
0.0468445,0.0249786,-0.229858,0.7764705882352941,0.6941176470588235,0.5137254901960784,0.317475,0.318815,0.893066
0.0480652,0.0249786,-0.229858,0.7411764705882353,0.6313725490196078,0.4431372549019607,0.0,0.0,1.0
0.0492554,0.0249786,-0.229858,0.7529411764705882,0.6352941176470588,0.4470588235294118,0.318132,0.318132,0.893076
0.0506897,0.0251007,-0.230835,0.7137254901960784,0.6,0.392156862745098,0.314972,0.317619,0.894378
0.0519104,0.0251007,-0.230835,0.6666666666666666,0.5333333333333333,0.3333333333333333,0.240464,0.117964,0.963463
0.0533447,0.0252075,-0.231812,0.6509803921568628,0.5294117647058824,0.3333333333333333,0.411656,0.203892,0.888238
0.0545654,0.0252075,-0.231812,0.6352941176470588,0.5176470588235295,0.3294117647058823,0.0,0.0,1.0
0.0557861,0.0252075,-0.231812,0.6078431372549019,0.4901960784313725,0.3019607843137254,0.0,0.0,1.0
0.0570068,0.0252075,-0.231812,0.5372549019607843,0.4117647058823529,0.2274509803921568,0.0,0.0,1.0
0.074585,0.0309906,-0.284912,0.5019607843137255,0.388235294117647,0.2196078431372549,0.0,0.0,1.0
0.0775757,0.0309906,-0.284912,0.1607843137254902,0.1647058823529411,0.1411764705882353,0.0,0.0,1.0
0.00345802,0.024292,-0.234863,0.6941176470588235,0.5803921568627451,0.3803921568627451,-0.626484,0.0,0.779434
0.004673,0.0242004,-0.233887,0.6980392156862745,0.5843137254901961,0.3764705882352941,-0.243528,0.242589,0.939066
0.00590134,0.0242004,-0.233887,0.7176470588235294,0.596078431372549,0.392156862745098,-0.498074,0.11419,0.859583
0.00709915,0.0240936,-0.232788,0.7294117647058823,0.6078431372549019,0.403921568627451,-0.656537,0.0,0.754294
0.00828552,0.0239868,-0.231812,0.7490196078431373,0.6352941176470588,0.4352941176470588,-0.342328,0.340545,0.875694
0.0094986,0.0239868,-0.231812,0.7529411764705882,0.6470588235294118,0.4470588235294118,-0.342838,0.342121,0.87488
0.0106735,0.02388,-0.230835,0.7686274509803922,0.6588235294117647,0.4705882352941176,-0.472644,0.118161,0.873296
0.0118866,0.02388,-0.230835,0.7450980392156863,0.6392156862745098,0.4392156862745098,-0.248447,0.247666,0.936449
0.0130386,0.0237732,-0.229858,0.7372549019607844,0.6235294117647059,0.4156862745098039,-0.382353,0.0,0.924016
0.0142517,0.0237732,-0.229858,0.7529411764705882,0.6392156862745098,0.4313725490196078,-0.13182,0.13182,0.98247
0.0154572,0.0237732,-0.229858,0.7568627450980392,0.6431372549019608,0.4352941176470588,-0.251645,0.250848,0.934746
0.0165863,0.0236816,-0.228882,0.7607843137254902,0.6470588235294118,0.4392156862745098,-0.251346,0.251346,0.934693
0.0177917,0.0236816,-0.228882,0.7607843137254902,0.6470588235294118,0.4392156862745098,0.0,0.363542,0.931578
0.0189972,0.0236816,-0.228882,0.7607843137254902,0.6470588235294118,0.4392156862745098,-0.131225,0.132908,0.982403
0.0202026,0.0236816,-0.228882,0.7529411764705882,0.6392156862745098,0.4313725490196078,0.0,0.0,1.0
0.0213928,0.0236816,-0.228882,0.7647058823529411,0.6509803921568628,0.4431372549019607,0.0,0.0,1.0
0.0225983,0.0236816,-0.228882,0.7568627450980392,0.6509803921568628,0.4509803921568627,-0.149415,0.149415,0.97742
0.0238037,0.0236816,-0.228882,0.7529411764705882,0.6470588235294118,0.4470588235294118,0.0,0.40199,0.915644
0.0250092,0.0236816,-0.228882,0.7607843137254902,0.6549019607843137,0.4549019607843137,0.0,0.401309,0.915943
0.0261993,0.0236816,-0.228882,0.7686274509803922,0.6627450980392157,0.4627450980392157,-0.282326,0.280528,0.917385
0.0272827,0.0235748,-0.227783,0.7686274509803922,0.6627450980392157,0.4549019607843137,-0.279939,0.281722,0.917751
0.0284882,0.0235748,-0.227783,0.7725490196078432,0.6666666666666666,0.4588235294117647,0.0,0.402679,0.915341
0.0296783,0.0235748,-0.227783,0.7725490196078432,0.6666666666666666,0.4666666666666667,0.0,0.40199,0.915644
0.0308838,0.0235748,-0.227783,0.7725490196078432,0.6666666666666666,0.4666666666666667,0.0,0.402679,0.915341
0.032074,0.0235748,-0.227783,0.7803921568627451,0.6745098039215687,0.4745098039215686,0.0,0.401294,0.915949
0.0332642,0.0235748,-0.227783,0.796078431372549,0.6862745098039216,0.5058823529411764,0.0,0.40337,0.915037
0.0344543,0.0235748,-0.227783,0.8156862745098039,0.7137254901960784,0.5411764705882353,0.0,0.400618,0.916245
0.035675,0.0235748,-0.227783,0.8117647058823529,0.7176470588235294,0.5490196078431373,0.0,0.403359,0.915042
0.0368652,0.0235748,-0.227783,0.8156862745098039,0.7215686274509804,0.5529411764705883,0.0,0.40199,0.915644
0.0380554,0.0235748,-0.227783,0.8196078431372549,0.7254901960784313,0.5568627450980392,0.0,0.40199,0.915644
0.0392456,0.0235748,-0.227783,0.8196078431372549,0.7333333333333333,0.5882352941176471,0.234791,0.469582,0.851097
0.0406189,0.0236816,-0.228882,0.807843137254902,0.7215686274509804,0.5764705882352941,0.233103,0.469176,0.851784
0.0418396,0.0236816,-0.228882,0.8274509803921568,0.7490196078431373,0.6,0.0,0.400636,0.916237
0.0430298,0.0236816,-0.228882,0.796078431372549,0.7098039215686275,0.5568627450980392,0.139512,0.275492,0.951126
0.04422,0.0236816,-0.228882,0.7686274509803922,0.6862745098039216,0.5215686274509804,0.0,0.0,1.0
0.0454407,0.0236816,-0.228882,0.7803921568627451,0.6980392156862745,0.5254901960784314,0.0,0.0,1.0
0.0466309,0.0236816,-0.228882,0.7568627450980392,0.6745098039215687,0.4941176470588235,0.319662,0.322371,0.891007
0.0480652,0.0237732,-0.229858,0.7411764705882353,0.6274509803921569,0.4274509803921568,0.320322,0.321673,0.891022
0.0492554,0.0237732,-0.229858,0.7294117647058823,0.615686274509804,0.4156862745098039,0.0,0.0,1.0
0.0504761,0.0237732,-0.229858,0.7058823529411765,0.5843137254901961,0.3803921568627451,0.41235,0.208126,0.886934
0.0519104,0.02388,-0.230835,0.6784313725490196,0.5568627450980392,0.3450980392156862,0.24204,0.121781,0.962593
0.0531006,0.02388,-0.230835,0.6588235294117647,0.5372549019607843,0.3333333333333333,0.316897,0.315571,0.894422
0.0545654,0.0239868,-0.231812,0.6431372549019608,0.5215686274509804,0.3176470588235294,0.313311,0.314622,0.896018
0.0557861,0.0239868,-0.231812,0.596078431372549,0.4745098039215686,0.2784313725490196,0.0,0.0,1.0
0.0570068,0.0239868,-0.231812,0.5333333333333333,0.4078431372549019,0.2235294117647059,0.0,0.0,1.0
0.0775757,0.0294952,-0.284912,0.1686274509803921,0.1568627450980392,0.1372549019607843,0.0,0.0,1.0
0.00222397,0.0230713,-0.234863,0.6901960784313725,0.5725490196078431,0.3843137254901961,-0.356404,-0.355854,0.863912
0.00345802,0.0230713,-0.234863,0.6941176470588235,0.5803921568627451,0.3803921568627451,-0.513998,0.0,0.857791
0.004673,0.0229645,-0.233887,0.7019607843137254,0.5882352941176471,0.3803921568627451,-0.473166,0.12946,0.871409
0.00590134,0.0229645,-0.233887,0.7137254901960784,0.6,0.392156862745098,-0.271217,0.269124,0.924129
0.00709915,0.0228729,-0.232788,0.7254901960784313,0.611764705882353,0.403921568627451,-0.656579,0.0,0.754257
0.00828552,0.0227661,-0.231812,0.7372549019607844,0.6235294117647059,0.4156862745098039,-0.637364,0.0,0.770563
0.00946045,0.0226746,-0.230835,0.7490196078431373,0.6352941176470588,0.4274509803921568,-0.247834,0.246285,0.936975
0.0106735,0.0226746,-0.230835,0.7568627450980392,0.6509803921568628,0.4509803921568627,-0.473758,0.118813,0.872604
0.0118332,0.0225677,-0.229858,0.7450980392156863,0.6392156862745098,0.4392156862745098,-0.248312,0.249097,0.936105
0.0130386,0.0225677,-0.229858,0.7411764705882353,0.6352941176470588,0.4274509803921568,-0.248993,0.249781,0.935742
0.0142517,0.0225677,-0.229858,0.7450980392156863,0.6392156862745098,0.4313725490196078,-0.250426,0.250426,0.935186
0.0153885,0.0224762,-0.228882,0.7529411764705882,0.6392156862745098,0.4313725490196078,-0.251645,0.250848,0.934746
0.0165863,0.0224762,-0.228882,0.7411764705882353,0.6274509803921569,0.4196078431372549,-0.13265,0.13181,0.982359
0.0177917,0.0224762,-0.228882,0.7411764705882353,0.6274509803921569,0.4196078431372549,0.0,0.0,1.0
0.0189972,0.0224762,-0.228882,0.7490196078431373,0.6352941176470588,0.4274509803921568,0.0,0.0,1.0
0.0202026,0.0224762,-0.228882,0.7529411764705882,0.6392156862745098,0.4313725490196078,-0.14948,0.147587,0.977688
0.0213928,0.0224762,-0.228882,0.7529411764705882,0.6392156862745098,0.4313725490196078,0.0,0.402679,0.915341
0.0225983,0.0224762,-0.228882,0.7490196078431373,0.6352941176470588,0.4274509803921568,-0.279621,0.279621,0.91849
0.0236969,0.0223694,-0.227783,0.7372549019607844,0.6235294117647059,0.4156862745098039,-0.278943,0.28072,0.918361
0.0249023,0.0223694,-0.227783,0.7450980392156863,0.6235294117647059,0.4196078431372549,0.0,0.40267,0.915345
0.0260925,0.0223694,-0.227783,0.7529411764705882,0.6313725490196078,0.4196078431372549,0.0,0.40199,0.915644
0.0272827,0.0223694,-0.227783,0.7568627450980392,0.6352941176470588,0.4235294117647059,-0.150395,0.148492,0.977411
0.0284882,0.0223694,-0.227783,0.7647058823529411,0.6509803921568628,0.4352941176470588,0.0,0.0,1.0
0.0296783,0.0223694,-0.227783,0.7803921568627451,0.6666666666666666,0.4666666666666667,0.0,0.0,1.0
0.0308838,0.0223694,-0.227783,0.7843137254901961,0.6705882352941176,0.4705882352941176,0.0,0.0,1.0
0.032074,0.0223694,-0.227783,0.7843137254901961,0.6705882352941176,0.4705882352941176,0.0,0.0,1.0
0.0332642,0.0223694,-0.227783,0.7843137254901961,0.6745098039215687,0.4862745098039215,-0.134541,0.134541,0.981732
0.0344543,0.0223694,-0.227783,0.807843137254902,0.7058823529411765,0.5333333333333333,0.0,0.365476,0.930821
0.035675,0.0223694,-0.227783,0.8156862745098039,0.7137254901960784,0.5411764705882353,0.12269,0.248525,0.960824
0.0368652,0.0223694,-0.227783,0.792156862745098,0.6980392156862745,0.5294117647058824,0.0,0.0,1.0
0.0380554,0.0223694,-0.227783,0.807843137254902,0.7254901960784313,0.5529411764705883,0.0,0.0,1.0
0.0392456,0.0223694,-0.227783,0.8156862745098039,0.7294117647058823,0.5764705882352941,0.0,0.0,1.0
0.0404358,0.0223694,-0.227783,0.7843137254901961,0.6980392156862745,0.5450980392156862,0.137822,0.275643,0.951328
0.0416565,0.0223694,-0.227783,0.7725490196078432,0.6784313725490196,0.5176470588235295,0.0,0.403341,0.91505
0.0428467,0.0223694,-0.227783,0.7647058823529411,0.6627450980392157,0.4901960784313725,0.235831,0.468657,0.851319
0.04422,0.0224762,-0.228882,0.7607843137254902,0.6627450980392157,0.4784313725490196,0.234137,0.468273,0.851998
0.0454407,0.0224762,-0.228882,0.7686274509803922,0.6705882352941176,0.4862745098039215,0.13707,0.274139,0.951872
0.0466309,0.0224762,-0.228882,0.7450980392156863,0.6470588235294118,0.4627450980392157,0.0,0.0,1.0
0.0478516,0.0224762,-0.228882,0.7294117647058823,0.6235294117647059,0.4235294117647059,0.320672,0.319319,0.891743
0.0492554,0.0225677,-0.229858,0.7294117647058823,0.615686274509804,0.4078431372549019,0.320672,0.319319,0.891743
0.0504761,0.0225677,-0.229858,0.7019607843137254,0.5882352941176471,0.3803921568627451,0.240418,0.118688,0.963386
0.0519104,0.0226746,-0.230835,0.6823529411764706,0.5607843137254902,0.3568627450980392,0.415974,0.204707,0.886037
0.0531006,0.0226746,-0.230835,0.6588235294117647,0.5372549019607843,0.3254901960784314,0.0,0.0,1.0
0.0543213,0.0226746,-0.230835,0.6313725490196078,0.4980392156862745,0.2901960784313726,0.409007,0.205145,0.889173
0.0557861,0.0227661,-0.231812,0.5803921568627451,0.4470588235294118,0.2470588235294117,0.238182,0.119091,0.963892
0.0570068,0.0227661,-0.231812,0.5215686274509804,0.4,0.2039215686274509,0.0,0.0,1.0
0.0760498,0.0279999,-0.284912,0.4352941176470588,0.3607843137254902,0.2549019607843137,0.0,0.0,1.0
0.0775757,0.0279999,-0.284912,0.1843137254901961,0.1529411764705882,0.1058823529411764,0.0,0.0,1.0
-0.000244379,0.0220184,-0.236816,0.6627450980392157,0.5490196078431373,0.3803921568627451,-0.618708,0.0,0.785621
0.000995636,0.0219269,-0.23584,0.6705882352941176,0.5529411764705883,0.3647058823529411,-0.254185,0.0,0.967156
0.00223351,0.0219269,-0.23584,0.6823529411764706,0.5647058823529412,0.3764705882352941,-0.511809,-0.17034,0.842043
0.00345802,0.0218353,-0.234863,0.6980392156862745,0.5843137254901961,0.3843137254901961,-0.555866,-0.111002,0.823827
0.004673,0.0217438,-0.233887,0.6980392156862745,0.5843137254901961,0.3843137254901961,-0.651432,0.0,0.758707
0.00587463,0.021637,-0.232788,0.7058823529411765,0.592156862745098,0.3843137254901961,-0.269957,0.271223,0.923884
0.00709915,0.021637,-0.232788,0.7215686274509804,0.6078431372549019,0.4,-0.479233,0.130269,0.867967
0.00828552,0.0215454,-0.231812,0.7254901960784313,0.611764705882353,0.403921568627451,-0.637356,0.0,0.770569
0.00946045,0.0214539,-0.230835,0.7372549019607844,0.6235294117647059,0.4235294117647059,-0.379208,0.0,0.925311
0.0106735,0.0214539,-0.230835,0.7568627450980392,0.6431372549019608,0.4431372549019607,-0.379902,0.0,0.925027
0.0118332,0.0213623,-0.229858,0.7490196078431373,0.6431372549019608,0.4431372549019607,-0.382349,0.0,0.924018
0.0130386,0.0213623,-0.229858,0.7333333333333333,0.6274509803921569,0.4196078431372549,-0.382704,0.0,0.923871
0.0141907,0.0212708,-0.228882,0.7333333333333333,0.6274509803921569,0.4196078431372549,-0.250426,0.250426,0.935186
0.0153885,0.0212708,-0.228882,0.7372549019607844,0.6235294117647059,0.4078431372549019,-0.132921,0.132079,0.982287
0.0165863,0.0212708,-0.228882,0.7294117647058823,0.615686274509804,0.4,0.0,0.0,1.0
0.0177917,0.0212708,-0.228882,0.7294117647058823,0.6078431372549019,0.396078431372549,0.0,0.0,1.0
0.0189972,0.0212708,-0.228882,0.7333333333333333,0.611764705882353,0.4,-0.148511,0.148511,0.977696
0.0202026,0.0212708,-0.228882,0.7294117647058823,0.615686274509804,0.4,-0.280803,0.279025,0.918311
0.0213013,0.0211792,-0.227783,0.7176470588235294,0.596078431372549,0.3843137254901961,-0.280803,0.279025,0.918311
0.0225067,0.0211792,-0.227783,0.7254901960784313,0.6039215686274509,0.392156862745098,0.0,0.402679,0.915341
0.0236969,0.0211792,-0.227783,0.7215686274509804,0.5882352941176471,0.3803921568627451,-0.148204,0.148204,0.977789
0.0249023,0.0211792,-0.227783,0.7254901960784313,0.6039215686274509,0.392156862745098,0.0,0.0,1.0
0.0260925,0.0211792,-0.227783,0.7294117647058823,0.6078431372549019,0.396078431372549,0.0,0.0,1.0
0.0272827,0.0211792,-0.227783,0.7372549019607844,0.615686274509804,0.403921568627451,0.0,0.0,1.0
0.0284882,0.0211792,-0.227783,0.7568627450980392,0.6352941176470588,0.4235294117647059,-0.135144,0.133434,0.9818
0.0296783,0.0211792,-0.227783,0.7647058823529411,0.6509803921568628,0.4352941176470588,0.0,0.367428,0.930052
0.0308838,0.0211792,-0.227783,0.7764705882352941,0.6627450980392157,0.4549019607843137,0.0,0.366124,0.930566
0.032074,0.0211792,-0.227783,0.7803921568627451,0.6666666666666666,0.4666666666666667,0.0,0.367428,0.930052
0.0332642,0.0211792,-0.227783,0.7725490196078432,0.6627450980392157,0.4745098039215686,-0.258933,0.258933,0.930541
0.0343018,0.0210876,-0.226807,0.7843137254901961,0.6745098039215687,0.4941176470588235,-0.258933,0.258933,0.930541
0.0354919,0.0210876,-0.226807,0.8,0.6980392156862745,0.5254901960784314,0.215975,0.43472,0.874285
0.0368652,0.0211792,-0.227783,0.7725490196078432,0.6705882352941176,0.4980392156862745,0.216925,0.433851,0.874481
0.0380554,0.0211792,-0.227783,0.796078431372549,0.7019607843137254,0.5333333333333333,0.0,0.368729,0.929537
0.0392456,0.0211792,-0.227783,0.7803921568627451,0.6980392156862745,0.5333333333333333,0.0,0.367428,0.930052
