X,Y,Z,R,G,B,nX,nY,nZ
0.00697708,0.0212708,-0.228882,0.7254901960784313,0.5686274509803921,0.3568627450980392,-0.131687,0.131687,0.982506
0.00817871,0.0212708,-0.228882,0.7137254901960784,0.5568627450980392,0.3450980392156862,-0.421843,0.0,0.906669
0.00933838,0.0211792,-0.227783,0.6823529411764706,0.5215686274509804,0.3294117647058823,-0.277322,0.275567,0.92041
0.0105362,0.0211792,-0.227783,0.6588235294117647,0.4980392156862745,0.3137254901960784,-0.147136,0.148079,0.977969
0.011734,0.0211792,-0.227783,0.6313725490196078,0.4666666666666667,0.2941176470588235,0.0,0.0,1.0
0.0129318,0.0211792,-0.227783,0.596078431372549,0.4352941176470588,0.2509803921568627,0.0,0.0,1.0
0.0201111,0.0211792,-0.227783,0.6392156862745098,0.4627450980392157,0.2588235294117647,0.0,0.0,1.0
0.0213013,0.0211792,-0.227783,0.6470588235294118,0.4784313725490196,0.2823529411764706,0.0,0.0,1.0
0.0225067,0.0211792,-0.227783,0.6470588235294118,0.4784313725490196,0.2823529411764706,0.150039,-0.148139,0.977519
0.0236969,0.0211792,-0.227783,0.6549019607843137,0.4862745098039215,0.2980392156862745,0.0,-0.431166,0.902272
0.0249023,0.0211792,-0.227783,0.6666666666666666,0.5058823529411764,0.3215686274509804,0.0,-0.429628,0.903006
0.0260925,0.0211792,-0.227783,0.6784313725490196,0.5176470588235295,0.3333333333333333,0.0,-0.43117,0.902271
0.0272827,0.0211792,-0.227783,0.6862745098039216,0.5254901960784314,0.3411764705882353,0.0,-0.431166,0.902272
0.0284882,0.0211792,-0.227783,0.6784313725490196,0.5176470588235295,0.3333333333333333,0.0,-0.430398,0.902639
0.0296783,0.0211792,-0.227783,0.7019607843137254,0.5411764705882353,0.3568627450980392,-0.151601,-0.301284,0.941406
0.0308838,0.0211792,-0.227783,0.7098039215686275,0.5490196078431373,0.3647058823529411,0.0,0.0,1.0
0.032074,0.0211792,-0.227783,0.7215686274509804,0.5607843137254902,0.3764705882352941,0.0,0.0,1.0
0.0332642,0.0211792,-0.227783,0.7294117647058823,0.5686274509803921,0.3843137254901961,0.0,0.0,1.0
0.0344543,0.0211792,-0.227783,0.7294117647058823,0.5686274509803921,0.3843137254901961,0.136633,0.276769,0.951173
0.035675,0.0211792,-0.227783,0.7372549019607844,0.5764705882352941,0.3843137254901961,0.356905,0.358411,0.862647
0.0370178,0.0212708,-0.228882,0.7450980392156863,0.5843137254901961,0.4,0.277256,0.136873,0.950997
0.038208,0.0212708,-0.228882,0.7490196078431373,0.596078431372549,0.4117647058823529,0.0,0.0,1.0
0.0394287,0.0212708,-0.228882,0.7529411764705882,0.596078431372549,0.4313725490196078,0.0,0.0,1.0
0.0406189,0.0212708,-0.228882,0.7568627450980392,0.6,0.4352941176470588,0.422534,0.211267,0.88138
0.0420227,0.0213623,-0.229858,0.7372549019607844,0.592156862745098,0.4156862745098039,0.24423,0.123661,0.9618
0.0432129,0.0213623,-0.229858,0.7254901960784313,0.5803921568627451,0.403921568627451,0.422311,0.210489,0.881673
0.0446167,0.0214539,-0.230835,0.7058823529411765,0.5529411764705883,0.3686274509803922,0.418712,0.210673,0.883344
0.0460205,0.0215454,-0.231812,0.6745098039215687,0.5137254901960784,0.3294117647058823,0.419097,0.210205,0.883273
0.0472412,0.0215454,-0.231812,0.6235294117647059,0.4627450980392157,0.2784313725490196,0.413858,0.206285,0.886661
0.0486755,0.021637,-0.232788,0.596078431372549,0.4352941176470588,0.2431372549019607,0.558133,0.277333,0.782032
0.0501099,0.0217438,-0.233887,0.6039215686274509,0.4431372549019607,0.2431372549019607,0.429641,0.215998,0.876786
-0.00394058,0.0205994,-0.234863,0.6078431372549019,0.4627450980392157,0.2862745098039215,-0.445204,0.221228,0.86767
-0.00269699,0.0205078,-0.233887,0.6196078431372549,0.4627450980392157,0.2901960784313726,-0.642049,0.0,0.766663
-0.00146294,0.0204163,-0.232788,0.6549019607843137,0.4941176470588235,0.3098039215686274,-0.545022,0.23374,0.805181
-0.000239134,0.0203247,-0.231812,0.6941176470588235,0.5411764705882353,0.3568627450980392,-0.419845,0.422246,0.803392
0.00097847,0.0203247,-0.231812,0.7137254901960784,0.5568627450980392,0.392156862745098,-0.341294,0.339827,0.876377
0.00218582,0.0202484,-0.230835,0.7098039215686275,0.5647058823529412,0.396078431372549,-0.63008,0.0,0.77653
0.00338554,0.0201569,-0.229858,0.7137254901960784,0.5607843137254902,0.3764705882352941,-0.375944,0.0,0.926643
0.0045929,0.0201569,-0.229858,0.7294117647058823,0.5764705882352941,0.3843137254901961,-0.378777,0.0,0.925488
0.00577164,0.0200653,-0.228882,0.7254901960784313,0.5725490196078431,0.3725490196078431,-0.379036,0.0,0.925382
0.00697708,0.0200653,-0.228882,0.7058823529411765,0.5568627450980392,0.3450980392156862,-0.148003,0.147535,0.97792
0.00817871,0.0200653,-0.228882,0.7058823529411765,0.5490196078431373,0.3372549019607843,-0.276739,0.27718,0.920101
0.00933838,0.0199738,-0.227783,0.6784313725490196,0.5176470588235295,0.3176470588235294,-0.423152,0.0,0.906059
0.0105362,0.0199738,-0.227783,0.6549019607843137,0.4941176470588235,0.3098039215686274,0.0,0.0,1.0
0.011734,0.0199738,-0.227783,0.6274509803921569,0.4666666666666667,0.2823529411764706,0.0,0.0,1.0
0.0201111,0.0199738,-0.227783,0.6274509803921569,0.4431372549019607,0.2431372549019607,0.0,-0.427314,0.904103
0.0213013,0.0199738,-0.227783,0.6313725490196078,0.4470588235294118,0.2470588235294117,0.0,-0.428858,0.903372
0.0225067,0.0199738,-0.227783,0.6313725490196078,0.4549019607843137,0.2509803921568627,0.279126,-0.279126,0.918791
0.0238037,0.0200653,-0.228882,0.6352941176470588,0.4549019607843137,0.2627450980392157,0.279724,-0.277954,0.918965
0.0250092,0.0200653,-0.228882,0.6235294117647059,0.4549019607843137,0.2588235294117647,0.0,-0.428858,0.903372
0.0261993,0.0200653,-0.228882,0.6352941176470588,0.4666666666666667,0.2784313725490196,0.0,-0.427314,0.904103
0.0274048,0.0200653,-0.228882,0.6431372549019608,0.4823529411764706,0.2901960784313726,0.0,-0.427318,0.904102
0.0286102,0.0200653,-0.228882,0.6431372549019608,0.4823529411764706,0.2901960784313726,0.0,-0.428086,0.903738
0.0298157,0.0200653,-0.228882,0.6549019607843137,0.4941176470588235,0.3098039215686274,-0.267872,-0.534048,0.801896
0.0308838,0.0199738,-0.227783,0.6588235294117647,0.4980392156862745,0.3137254901960784,-0.269504,-0.533891,0.801453
0.032074,0.0199738,-0.227783,0.6941176470588235,0.5137254901960784,0.3215686274509804,0.0,-0.429631,0.903004
0.0332642,0.0199738,-0.227783,0.6980392156862745,0.5294117647058824,0.3411764705882353,-0.150352,-0.300705,0.941791
0.0344543,0.0199738,-0.227783,0.7058823529411765,0.5372549019607843,0.3490196078431372,0.0,0.0,1.0
0.035675,0.0199738,-0.227783,0.7137254901960784,0.5450980392156862,0.3568627450980392,0.393919,0.0,0.919145
0.0370178,0.0200653,-0.228882,0.7254901960784313,0.5568627450980392,0.3686274509803922,0.397918,0.0,0.917421
0.038208,0.0200653,-0.228882,0.7333333333333333,0.5725490196078431,0.3803921568627451,0.0,0.0,1.0
0.0394287,0.0200653,-0.228882,0.7333333333333333,0.5803921568627451,0.396078431372549,0.0,0.0,1.0
0.0406189,0.0200653,-0.228882,0.7333333333333333,0.5803921568627451,0.396078431372549,0.24423,0.123661,0.9618
0.0420227,0.0201569,-0.229858,0.7254901960784313,0.5843137254901961,0.396078431372549,0.422534,0.211267,0.88138
0.0432129,0.0201569,-0.229858,0.7058823529411765,0.5647058823529412,0.3686274509803922,0.24423,0.123661,0.9618
0.0446167,0.0202484,-0.230835,0.6980392156862745,0.5372549019607843,0.3450980392156862,0.418936,0.21145,0.883052
0.0458374,0.0202484,-0.230835,0.6509803921568628,0.4823529411764706,0.3019607843137254,0.419322,0.210979,0.882982
0.0501099,0.0205078,-0.233887,0.5882352941176471,0.4352941176470588,0.2509803921568627,0.44926,0.226025,0.864337
-0.00392532,0.0192719,-0.233887,0.6,0.4549019607843137,0.2784313725490196,0.0,0.250826,0.968032
-0.00269699,0.0192719,-0.233887,0.6235294117647059,0.4666666666666667,0.2941176470588235,-0.492069,0.112493,0.863258
-0.00146294,0.0191956,-0.232788,0.6470588235294118,0.4862745098039215,0.3019607843137254,-0.645164,0.0,0.764044
-0.000239134,0.0191193,-0.231812,0.6509803921568628,0.4901960784313725,0.3058823529411765,-0.625287,0.0,0.780395
0.000974655,0.0190277,-0.230835,0.6666666666666666,0.5058823529411764,0.3215686274509804,-0.245323,0.247142,0.93741
0.00218582,0.0190277,-0.230835,0.6862745098039216,0.5411764705882353,0.3725490196078431,-0.468315,0.116895,0.875795
0.00338554,0.0189514,-0.229858,0.6980392156862745,0.5529411764705883,0.3843137254901961,-0.470196,0.117364,0.874723
0.0045929,0.0189514,-0.229858,0.7137254901960784,0.5725490196078431,0.3843137254901961,-0.248207,0.24959,0.936001
0.00577164,0.0188599,-0.228882,0.7215686274509804,0.5686274509803921,0.3686274509803922,-0.379733,0.0,0.925096
0.00697708,0.0188599,-0.228882,0.7215686274509804,0.5607843137254902,0.3607843137254902,-0.420725,0.0,0.907188
0.00814056,0.0187836,-0.227783,0.7058823529411765,0.5450980392156862,0.3450980392156862,-0.27789,0.276571,0.919938
0.00933838,0.0187836,-0.227783,0.6823529411764706,0.5215686274509804,0.3294117647058823,-0.147432,0.148377,0.977879
0.0105362,0.0187836,-0.227783,0.6666666666666666,0.5058823529411764,0.3215686274509804,0.0,0.0,1.0
0.011734,0.0187836,-0.227783,0.6431372549019608,0.4784313725490196,0.3058823529411765,0.0,0.0,1.0
0.0129318,0.0187836,-0.227783,0.611764705882353,0.4549019607843137,0.2901960784313726,0.0,0.0,1.0
0.0189056,0.0187836,-0.227783,0.6352941176470588,0.4509803921568627,0.2431372549019607,0.279516,-0.281307,0.918007
0.0202026,0.0188599,-0.228882,0.6352941176470588,0.4509803921568627,0.2431372549019607,0.279516,-0.281307,0.918007
0.0274048,0.0188599,-0.228882,0.6039215686274509,0.4352941176470588,0.2392156862745098,0.0,0.0,1.0
0.0286102,0.0188599,-0.228882,0.6078431372549019,0.4392156862745098,0.2431372549019607,0.0,0.0,1.0
0.0298157,0.0188599,-0.228882,0.6039215686274509,0.4352941176470588,0.2392156862745098,0.0,0.0,1.0
0.0310211,0.0188599,-0.228882,0.6274509803921569,0.4588235294117647,0.2627450980392157,-0.152566,-0.30127,0.941254
0.032196,0.0188599,-0.228882,0.6549019607843137,0.4784313725490196,0.2745098039215686,0.0,-0.428861,0.903371
0.0334167,0.0188599,-0.228882,0.6588235294117647,0.4823529411764706,0.2784313725490196,-0.266822,-0.537065,0.800229
0.0344543,0.0187836,-0.227783,0.6666666666666666,0.4901960784313725,0.2862745098039215,-0.265597,-0.538004,0.800006
0.035675,0.0187836,-0.227783,0.6823529411764706,0.5137254901960784,0.3176470588235294,0.27403,-0.277544,0.920802
0.0370178,0.0188599,-0.228882,0.6901960784313725,0.5215686274509804,0.3254901960784314,0.397918,0.0,0.917421
0.038208,0.0188599,-0.228882,0.7176470588235294,0.5490196078431373,0.3607843137254902,0.0,0.0,1.0
0.0394287,0.0188599,-0.228882,0.7137254901960784,0.5529411764705883,0.3607843137254902,0.0,0.0,1.0
0.0406189,0.0188599,-0.228882,0.7294117647058823,0.5686274509803921,0.3764705882352941,0.0,0.0,1.0
0.0418396,0.0188599,-0.228882,0.7215686274509804,0.5686274509803921,0.3843137254901961,0.422759,0.212051,0.881084
0.0432129,0.0189514,-0.229858,0.7019607843137254,0.5490196078431373,0.3568627450980392,0.24439,0.120648,0.962142
0.0444336,0.0189514,-0.229858,0.6941176470588235,0.5333333333333333,0.3411764705882353,0.419548,0.211759,0.882688
0.0458374,0.0190277,-0.230835,0.6470588235294118,0.4784313725490196,0.2901960784313726,0.503436,0.101193,0.858086
-0.00392532,0.0180511,-0.233887,0.6039215686274509,0.4470588235294118,0.2823529411764706,-0.271278,0.269603,0.923971
-0.00269699,0.0180511,-0.233887,0.6235294117647059,0.4705882352941176,0.2862745098039215,-0.269693,0.270747,0.9241
-0.00146294,0.0179749,-0.232788,0.6274509803921569,0.4666666666666667,0.2823529411764706,-0.645121,0.0,0.76408
-0.000239134,0.0178986,-0.231812,0.6196078431372549,0.4549019607843137,0.2823529411764706,-0.625291,0.0,0.780392
0.000974655,0.0178223,-0.230835,0.6470588235294118,0.4823529411764706,0.3098039215686274,-0.467678,0.11637,0.876205
0.00218582,0.0178223,-0.230835,0.6705882352941176,0.5137254901960784,0.3490196078431372,-0.247347,0.248325,0.936565
0.00338554,0.017746,-0.229858,0.6980392156862745,0.5411764705882353,0.3764705882352941,-0.633709,0.0,0.773571
0.00457001,0.0176697,-0.228882,0.7137254901960784,0.5568627450980392,0.3843137254901961,-0.249245,0.249048,0.93587
0.00577164,0.0176697,-0.228882,0.7215686274509804,0.5607843137254902,0.3686274509803922,-0.130781,0.132038,0.982579
0.00697708,0.0176697,-0.228882,0.7215686274509804,0.5607843137254902,0.3607843137254902,-0.420725,0.0,0.907188
0.00814056,0.0175781,-0.227783,0.7215686274509804,0.5607843137254902,0.3607843137254902,-0.421843,0.0,0.906669
0.00933838,0.0175781,-0.227783,0.7254901960784313,0.5647058823529412,0.3803921568627451,0.0,0.0,1.0
0.0105362,0.0175781,-0.227783,0.7215686274509804,0.5568627450980392,0.3843137254901961,0.0,0.0,1.0
0.011734,0.0175781,-0.227783,0.7176470588235294,0.5607843137254902,0.396078431372549,0.0,0.0,1.0
0.0129318,0.0175781,-0.227783,0.6705882352941176,0.5215686274509804,0.3725490196078431,0.0,0.0,1.0
0.0177155,0.0175781,-0.227783,0.6980392156862745,0.5176470588235295,0.3254901960784314,0.404055,0.0,0.914735
0.0189972,0.0176697,-0.228882,0.6980392156862745,0.5176470588235295,0.3254901960784314,0.280726,-0.27895,0.918357
0.0202026,0.0176697,-0.228882,0.6588235294117647,0.4823529411764706,0.2784313725490196,0.148185,-0.150085,0.977505
0.0334167,0.0176697,-0.228882,0.6392156862745098,0.4627450980392157,0.2509803921568627,0.0,0.0,1.0
0.0346069,0.0176697,-0.228882,0.6588235294117647,0.4823529411764706,0.2705882352941176,-0.148451,-0.300708,0.942092
0.0358276,0.0176697,-0.228882,0.6705882352941176,0.4901960784313725,0.2980392156862745,0.0,-0.429618,0.903011
0.0370178,0.0176697,-0.228882,0.6823529411764706,0.5019607843137255,0.3176470588235294,0.147914,-0.147914,0.977877
0.038208,0.0176697,-0.228882,0.6862745098039216,0.5176470588235295,0.3294117647058823,0.0,0.0,1.0
0.0394287,0.0176697,-0.228882,0.7058823529411765,0.5372549019607843,0.3490196078431372,0.0,0.0,1.0
0.0406189,0.0176697,-0.228882,0.7098039215686275,0.5411764705882353,0.3529411764705882,0.0,0.0,1.0
0.0418396,0.0176697,-0.228882,0.7098039215686275,0.5411764705882353,0.3529411764705882,0.352946,0.0,0.935644
0.0432129,0.017746,-0.229858,0.6901960784313725,0.5215686274509804,0.3333333333333333,0.351715,0.0,0.936107
0.0444336,0.017746,-0.229858,0.6666666666666666,0.5058823529411764,0.3137254901960784,0.349333,0.0,0.936999
0.0458374,0.0178223,-0.230835,0.6392156862745098,0.4784313725490196,0.2862745098039215,0.571064,0.0,0.820905
0.0472412,0.0178986,-0.231812,0.6039215686274509,0.4509803921568627,0.2666666666666666,0.348139,0.0,0.937443
-0.0955811,0.0406494,-0.564941,0.5529411764705883,0.5529411764705883,0.5372549019607843,0.588172,0.0,0.808736
-0.0928955,0.040802,-0.566895,0.5607843137254902,0.5607843137254902,0.5450980392156862,0.168507,-0.0825339,0.982239
-0.00392532,0.0168152,-0.233887,0.596078431372549,0.4509803921568627,0.2745098039215686,-0.66322,0.0,0.748425
-0.00268555,0.0167542,-0.232788,0.6196078431372549,0.4666666666666667,0.2823529411764706,-0.360123,0.359714,0.860765
-0.00146294,0.0167542,-0.232788,0.6274509803921569,0.4666666666666667,0.2745098039215686,-0.350251,0.351085,0.868369
-0.000239134,0.0166779,-0.231812,0.6196078431372549,0.4549019607843137,0.2823529411764706,-0.625287,0.0,0.780395
0.000974655,0.0166016,-0.230835,0.6274509803921569,0.4627450980392157,0.2901960784313726,-0.628766,0.0,0.777595
0.00217628,0.0165405,-0.229858,0.6509803921568628,0.4862745098039215,0.3215686274509804,-0.248427,0.247064,0.936612
0.00338554,0.0165405,-0.229858,0.6862745098039216,0.5215686274509804,0.3568627450980392,-0.470924,0.117917,0.874257
0.00457001,0.0164642,-0.228882,0.7058823529411765,0.5529411764705883,0.3686274509803922,-0.378777,0.0,0.925488
0.00577164,0.0164642,-0.228882,0.7176470588235294,0.5647058823529412,0.3725490196078431,-0.148137,0.148137,0.977809
0.00697708,0.0164642,-0.228882,0.7215686274509804,0.5686274509803921,0.3764705882352941,-0.277229,0.277671,0.919806
0.00814056,0.0163879,-0.227783,0.7215686274509804,0.5647058823529412,0.392156862745098,-0.422593,0.0,0.90632
0.00933838,0.0163879,-0.227783,0.7372549019607844,0.5803921568627451,0.4078431372549019,0.0,0.0,1.0
0.0105362,0.0163879,-0.227783,0.7254901960784313,0.5686274509803921,0.396078431372549,0.0,0.0,1.0
0.011734,0.0163879,-0.227783,0.7372549019607844,0.596078431372549,0.4431372549019607,0.0,0.0,1.0
0.0129318,0.0163879,-0.227783,0.6823529411764706,0.5333333333333333,0.392156862745098,0.0,0.0,1.0
0.014122,0.0163879,-0.227783,0.6745098039215687,0.5137254901960784,0.3764705882352941,0.0,0.0,1.0
0.0153198,0.0163879,-0.227783,0.6901960784313725,0.5333333333333333,0.3607843137254902,0.0,0.0,1.0
0.01651,0.0163879,-0.227783,0.7019607843137254,0.5490196078431373,0.3647058823529411,0.0,0.0,1.0
0.0177155,0.0163879,-0.227783,0.7372549019607844,0.5764705882352941,0.3764705882352941,0.280226,0.140113,0.949654
0.0189972,0.0164642,-0.228882,0.7568627450980392,0.596078431372549,0.396078431372549,0.480861,0.240431,0.843188
0.0202026,0.0164642,-0.228882,0.7254901960784313,0.5686274509803921,0.3568627450980392,0.0,0.0,1.0
0.0213928,0.0164642,-0.228882,0.6549019607843137,0.4627450980392157,0.2392156862745098,0.0,0.0,1.0
0.0346069,0.0164642,-0.228882,0.6431372549019608,0.4666666666666667,0.2549019607843137,0.0,0.0,1.0
0.0358276,0.0164642,-0.228882,0.6549019607843137,0.4862745098039215,0.2901960784313726,0.0,0.0,1.0
0.0370178,0.0164642,-0.228882,0.6509803921568628,0.4823529411764706,0.2941176470588235,0.0,0.0,1.0
0.038208,0.0164642,-0.228882,0.6588235294117647,0.4901960784313725,0.3098039215686274,0.0,0.0,1.0
0.0394287,0.0164642,-0.228882,0.6823529411764706,0.5137254901960784,0.3333333333333333,0.0,0.0,1.0
0.0406189,0.0164642,-0.228882,0.6862745098039216,0.5254901960784314,0.3333333333333333,0.0,0.0,1.0
0.0418396,0.0164642,-0.228882,0.6862745098039216,0.5215686274509804,0.3490196078431372,0.352636,0.0,0.935761
0.0432129,0.0165405,-0.229858,0.6823529411764706,0.5215686274509804,0.3372549019607843,0.352024,0.0,0.935991
0.0444336,0.0165405,-0.229858,0.6666666666666666,0.5058823529411764,0.3215686274509804,0.348734,0.0,0.937222
0.0458374,0.0166016,-0.230835,0.6235294117647059,0.4627450980392157,0.2784313725490196,0.503962,0.101554,0.857735
0.0472412,0.0166779,-0.231812,0.6039215686274509,0.4509803921568627,0.2666666666666666,0.420124,0.211052,0.882583
-0.0955811,0.0376892,-0.564941,0.5529411764705883,0.5529411764705883,0.5294117647058824,0.588172,0.0,0.808736
-0.0928955,0.0378113,-0.566895,0.5529411764705883,0.5529411764705883,0.5294117647058824,0.378832,-0.0534036,0.923923
-0.00392532,0.0155945,-0.233887,0.6,0.4588235294117647,0.2705882352941176,-0.488405,0.244203,0.83775
-0.00268555,0.0155334,-0.232788,0.6078431372549019,0.4666666666666667,0.2784313725490196,-0.643553,0.0,0.765402
-0.00145721,0.0154648,-0.231812,0.6235294117647059,0.4627450980392157,0.2627450980392157,-0.245216,0.245144,0.937963
-0.000239134,0.0154648,-0.231812,0.6274509803921569,0.4666666666666667,0.2745098039215686,-0.46455,0.116434,0.877859
0.000974655,0.0153961,-0.230835,0.611764705882353,0.4470588235294118,0.2745098039215686,-0.628766,0.0,0.777595
0.00217628,0.0153275,-0.229858,0.615686274509804,0.4509803921568627,0.2862745098039215,-0.375433,0.0,0.92685
0.00338554,0.0153275,-0.229858,0.6823529411764706,0.5176470588235295,0.3529411764705882,-0.377053,0.0,0.926192
0.00457001,0.0152588,-0.228882,0.7058823529411765,0.5529411764705883,0.3686274509803922,-0.379467,0.0,0.925205
0.00577164,0.0152588,-0.228882,0.7215686274509804,0.5686274509803921,0.3843137254901961,-0.419242,0.0,0.907874
0.00694656,0.0151978,-0.227783,0.7254901960784313,0.5725490196078431,0.388235294117647,-0.278298,0.277856,0.919427
0.00814056,0.0151978,-0.227783,0.7294117647058823,0.5725490196078431,0.4,-0.148269,0.148744,0.977697
0.00933838,0.0151978,-0.227783,0.7372549019607844,0.5803921568627451,0.4078431372549019,0.0,0.0,1.0
0.0105362,0.0151978,-0.227783,0.7372549019607844,0.5803921568627451,0.4078431372549019,-0.133713,0.133713,0.981958
0.011734,0.0151978,-0.227783,0.7450980392156863,0.6039215686274509,0.4431372549019607,0.0,0.370062,0.929007
0.0129318,0.0151978,-0.227783,0.7176470588235294,0.5764705882352941,0.4235294117647059,0.0,0.370062,0.929007
0.014122,0.0151978,-0.227783,0.7333333333333333,0.5882352941176471,0.4549019607843137,0.127807,0.254799,0.958511
0.0153198,0.0151978,-0.227783,0.7058823529411765,0.5607843137254902,0.392156862745098,0.0,0.0,1.0
0.01651,0.0151978,-0.227783,0.7176470588235294,0.5607843137254902,0.388235294117647,0.0,0.0,1.0
0.0177155,0.0151978,-0.227783,0.7764705882352941,0.6235294117647059,0.4392156862745098,0.0,0.0,1.0
0.0189056,0.0151978,-0.227783,0.7725490196078432,0.6392156862745098,0.4470588235294118,0.367721,0.368502,0.853808
0.0202026,0.0152588,-0.228882,0.7529411764705882,0.611764705882353,0.4156862745098039,0.367841,0.367841,0.854041
0.0213928,0.0152588,-0.228882,0.6941176470588235,0.5137254901960784,0.2862745098039215,0.0,0.0,1.0
0.0346069,0.0152588,-0.228882,0.6352941176470588,0.4588235294117647,0.2470588235294117,0.0,0.0,1.0
0.0358276,0.0152588,-0.228882,0.6588235294117647,0.4823529411764706,0.2784313725490196,0.0,0.0,1.0
0.0370178,0.0152588,-0.228882,0.6196078431372549,0.4509803921568627,0.2627450980392157,0.0,0.0,1.0
0.038208,0.0152588,-0.228882,0.6235294117647059,0.4549019607843137,0.2745098039215686,0.0,0.0,1.0
0.0394287,0.0152588,-0.228882,0.6470588235294118,0.4784313725490196,0.2980392156862745,0.0,0.0,1.0
0.0406189,0.0152588,-0.228882,0.6666666666666666,0.5058823529411764,0.3215686274509804,0.130085,-0.13257,0.9826
0.0418396,0.0152588,-0.228882,0.6509803921568628,0.4980392156862745,0.3137254901960784,0.245479,-0.245479,0.937806
0.0432129,0.0153275,-0.229858,0.6509803921568628,0.4980392156862745,0.3137254901960784,0.35233,0.0,0.935876
0.0444336,0.0153275,-0.229858,0.6352941176470588,0.4823529411764706,0.2980392156862745,0.348734,0.0,0.937222
0.0458374,0.0153961,-0.230835,0.6039215686274509,0.4470588235294118,0.2745098039215686,0.348734,0.0,0.937222
-0.0955811,0.0346985,-0.564941,0.5686274509803921,0.5686274509803921,0.5450980392156862,0.588172,0.0,0.808736
-0.00391006,0.0143051,-0.232788,0.6,0.4588235294117647,0.2705882352941176,0.0,0.648563,0.761161
-0.00268555,0.0143051,-0.232788,0.615686274509804,0.4627450980392157,0.2784313725490196,-0.538101,0.146741,0.830009
-0.00145721,0.0142441,-0.231812,0.611764705882353,0.4588235294117647,0.2666666666666666,-0.371066,0.0,0.928606
-0.000239134,0.0142441,-0.231812,0.596078431372549,0.4431372549019607,0.2509803921568627,-0.37231,0.0,0.928109
0.000974655,0.014183,-0.230835,0.6313725490196078,0.4666666666666667,0.3019607843137254,-0.628764,0.0,0.777597
0.00217628,0.014122,-0.229858,0.6313725490196078,0.4627450980392157,0.3098039215686274,-0.375774,0.0,0.926711
0.00338554,0.014122,-0.229858,0.6392156862745098,0.4705882352941176,0.3176470588235294,-0.377742,0.0,0.925911
0.00457001,0.014061,-0.228882,0.7058823529411765,0.5411764705882353,0.3686274509803922,-0.378777,0.0,0.925488
0.00577164,0.014061,-0.228882,0.7137254901960784,0.5529411764705883,0.3686274509803922,-0.419612,0.0,0.907703
0.00694656,0.0139999,-0.227783,0.7254901960784313,0.5647058823529412,0.3803921568627451,-0.420725,0.0,0.907188
0.00814056,0.0139999,-0.227783,0.7254901960784313,0.5647058823529412,0.3803921568627451,0.0,0.0,1.0
0.00933838,0.0139999,-0.227783,0.7372549019607844,0.5843137254901961,0.4,-0.133303,0.133303,0.982069
0.0105362,0.0139999,-0.227783,0.7372549019607844,0.5843137254901961,0.4,-0.253437,0.253437,0.933563
0.0116806,0.0139389,-0.226807,0.7372549019607844,0.592156862745098,0.4235294117647059,-0.253906,0.253906,0.933308
0.0128708,0.0139389,-0.226807,0.7411764705882353,0.611764705882353,0.4627450980392157,0.0,0.370724,0.928743
0.014061,0.0139389,-0.226807,0.7764705882352941,0.6588235294117647,0.5176470588235295,0.224619,0.44852,0.865088
0.0153198,0.0139999,-0.227783,0.7568627450980392,0.6313725490196078,0.4901960784313725,0.224197,0.448395,0.865262
0.01651,0.0139999,-0.227783,0.7686274509803922,0.6470588235294118,0.4941176470588235,0.127288,0.254576,0.958639
0.0177155,0.0139999,-0.227783,0.7686274509803922,0.6470588235294118,0.4784313725490196,0.0,0.0,1.0
0.0189056,0.0139999,-0.227783,0.7725490196078432,0.6509803921568628,0.4549019607843137,0.0,0.0,1.0
0.0201111,0.0139999,-0.227783,0.7294117647058823,0.5882352941176471,0.3843137254901961,0.482448,0.24084,0.842164
0.0213928,0.014061,-0.228882,0.7098039215686275,0.5294117647058824,0.2941176470588235,0.280815,0.13907,0.949633
0.0287323,0.014122,-0.229858,0.6627450980392157,0.5215686274509804,0.3764705882352941,-0.133644,-0.267289,0.954304
0.0334167,0.014061,-0.228882,0.6392156862745098,0.4588235294117647,0.2392156862745098,0.0,0.0,1.0
0.0346069,0.014061,-0.228882,0.6352941176470588,0.4627450980392157,0.2392156862745098,0.0,0.0,1.0
0.0358276,0.014061,-0.228882,0.6431372549019608,0.4666666666666667,0.2627450980392157,0.0,0.0,1.0
0.0370178,0.014061,-0.228882,0.6235294117647059,0.4431372549019607,0.2509803921568627,0.0,0.0,1.0
0.038208,0.014061,-0.228882,0.6039215686274509,0.4392156862745098,0.2666666666666666,0.0,0.0,1.0
0.0406189,0.014061,-0.228882,0.6,0.4352941176470588,0.2627450980392157,0.352629,0.0,0.935763
0.0420227,0.014122,-0.229858,0.6235294117647059,0.4666666666666667,0.2941176470588235,0.245005,-0.245783,0.93785
0.0432129,0.014122,-0.229858,0.611764705882353,0.4549019607843137,0.2823529411764706,0.130643,-0.12899,0.983003
0.0444336,0.014122,-0.229858,0.6039215686274509,0.4588235294117647,0.2823529411764706,0.349034,0.0,0.93711
-0.00268555,0.0130844,-0.232788,0.5882352941176471,0.4470588235294118,0.2588235294117647,-0.622321,0.0,0.782763
-0.00145721,0.0130234,-0.231812,0.6,0.4588235294117647,0.2705882352941176,-0.425005,0.141659,0.894038
0.000974655,0.01297,-0.230835,0.592156862745098,0.4352941176470588,0.2627450980392157,-0.628766,0.0,0.777595
0.00217628,0.0129166,-0.229858,0.611764705882353,0.4549019607843137,0.2901960784313726,-0.375433,0.0,0.92685
0.00338554,0.0129166,-0.229858,0.611764705882353,0.4470588235294118,0.2823529411764706,-0.377397,0.0,0.926051
0.00457001,0.0128555,-0.228882,0.6862745098039216,0.5254901960784314,0.3411764705882353,-0.379123,0.0,0.925346
0.00577164,0.0128555,-0.228882,0.7098039215686275,0.5490196078431373,0.3568627450980392,-0.419242,0.0,0.907874
0.00694656,0.0128021,-0.227783,0.7137254901960784,0.5529411764705883,0.3607843137254902,-0.421095,0.0,0.907017
0.00814056,0.0128021,-0.227783,0.7294117647058823,0.5686274509803921,0.3764705882352941,0.0,0.0,1.0
0.00933838,0.0128021,-0.227783,0.7254901960784313,0.5647058823529412,0.3725490196078431,-0.383764,0.0,0.923431
0.0104904,0.0127487,-0.226807,0.7215686274509804,0.5607843137254902,0.3686274509803922,-0.25397,0.253161,0.933493
0.0116806,0.0127487,-0.226807,0.7333333333333333,0.5764705882352941,0.4117647058823529,-0.133576,0.133576,0.981995
0.0128708,0.0127487,-0.226807,0.7450980392156863,0.6039215686274509,0.4431372549019607,0.0,0.0,1.0
0.014061,0.0127487,-0.226807,0.7568627450980392,0.6274509803921569,0.4705882352941176,0.0,0.0,1.0
0.0152512,0.0127487,-0.226807,0.7568627450980392,0.6274509803921569,0.4705882352941176,0.126891,0.254596,0.958686
0.016449,0.0127487,-0.226807,0.7647058823529411,0.6352941176470588,0.4784313725490196,0.224617,0.448519,0.865088
0.0177155,0.0128021,-0.227783,0.7725490196078432,0.6431372549019608,0.4784313725490196,0.340434,0.339711,0.876756
0.0189056,0.0128021,-0.227783,0.7607843137254902,0.6392156862745098,0.4431372549019607,0.0,0.0,1.0
0.0201111,0.0128021,-0.227783,0.7137254901960784,0.5764705882352941,0.3607843137254902,0.281051,0.139631,0.949481
0.0213928,0.0128555,-0.228882,0.7019607843137254,0.5215686274509804,0.2862745098039215,0.482786,0.241009,0.841922
0.0275269,0.0129166,-0.229858,0.6313725490196078,0.4705882352941176,0.3176470588235294,0.0,0.0,1.0
0.0287323,0.0129166,-0.229858,0.7098039215686275,0.5607843137254902,0.403921568627451,-0.134421,0.133575,0.98188
0.0299377,0.0129166,-0.229858,0.7254901960784313,0.5647058823529412,0.3647058823529411,-0.255973,0.256786,0.931954
0.0310211,0.0128555,-0.228882,0.7058823529411765,0.5450980392156862,0.3450980392156862,-0.397279,0.0,0.917698
0.032196,0.0128555,-0.228882,0.6823529411764706,0.5058823529411764,0.2941176470588235,0.0,0.0,1.0
0.0334167,0.0128555,-0.228882,0.6862745098039216,0.5098039215686274,0.3058823529411765,0.0,0.0,1.0
0.0346069,0.0128555,-0.228882,0.6627450980392157,0.4862745098039215,0.2823529411764706,0.0,0.0,1.0
0.0358276,0.0128555,-0.228882,0.6549019607843137,0.4862745098039215,0.2901960784313726,0.0,0.0,1.0
0.0370178,0.0128555,-0.228882,0.6431372549019608,0.4745098039215686,0.2941176470588235,0.0,0.0,1.0
0.0432129,0.0129166,-0.229858,0.5803921568627451,0.4352941176470588,0.2666666666666666,0.130749,-0.131571,0.982646
-0.00145721,0.0118103,-0.231812,0.596078431372549,0.4549019607843137,0.2666666666666666,-0.625179,0.0,0.780482
-0.000238061,0.0117569,-0.230835,0.5764705882352941,0.4352941176470588,0.2470588235294117,-0.247197,0.247671,0.936778
0.00217628,0.0117035,-0.229858,0.596078431372549,0.4392156862745098,0.2666666666666666,-0.375773,0.0,0.926712
0.00338554,0.0117035,-0.229858,0.6196078431372549,0.4627450980392157,0.2901960784313726,-0.377398,0.0,0.926051
0.00457001,0.0116577,-0.228882,0.6784313725490196,0.5176470588235295,0.3333333333333333,-0.379122,0.0,0.925347
0.00577164,0.0116577,-0.228882,0.7058823529411765,0.5450980392156862,0.3529411764705882,-0.419612,0.0,0.907703
0.00694656,0.0116043,-0.227783,0.7137254901960784,0.5529411764705883,0.3607843137254902,-0.420725,0.0,0.907188
0.00814056,0.0116043,-0.227783,0.7215686274509804,0.5607843137254902,0.3607843137254902,0.0,0.0,1.0
0.00933838,0.0116043,-0.227783,0.7215686274509804,0.5647058823529412,0.3529411764705882,-0.383409,0.0,0.923579
0.0104904,0.0115509,-0.226807,0.7215686274509804,0.5607843137254902,0.3607843137254902,-0.385184,0.0,0.92284
0.0116806,0.0115509,-0.226807,0.7333333333333333,0.5725490196078431,0.388235294117647,0.0,0.0,1.0
0.0128708,0.0115509,-0.226807,0.7411764705882353,0.596078431372549,0.4274509803921568,0.0,0.0,1.0
0.014061,0.0115509,-0.226807,0.7411764705882353,0.592156862745098,0.4352941176470588,0.0,0.0,1.0
0.0152512,0.0115509,-0.226807,0.7529411764705882,0.611764705882353,0.4509803921568627,0.0,0.0,1.0
0.016449,0.0115509,-0.226807,0.7529411764705882,0.611764705882353,0.4509803921568627,0.0,0.0,1.0
0.0176392,0.0115509,-0.226807,0.7607843137254902,0.6313725490196078,0.4666666666666667,0.448015,0.222936,0.865784
0.0189056,0.0116043,-0.227783,0.7450980392156863,0.592156862745098,0.4078431372549019,0.253405,0.125895,0.959133
0.0201111,0.0116043,-0.227783,0.7098039215686275,0.5411764705882353,0.3450980392156862,0.0,0.0,1.0
0.0213013,0.0116043,-0.227783,0.6862745098039216,0.5058823529411764,0.2705882352941176,0.483124,0.241178,0.84168
0.0238037,0.0116577,-0.228882,0.6862745098039216,0.5058823529411764,0.2705882352941176,0.0,0.0,1.0
0.0250092,0.0116577,-0.228882,0.6862745098039216,0.5058823529411764,0.2862745098039215,0.250801,0.124206,0.960037
0.0263214,0.0117035,-0.229858,0.6901960784313725,0.5098039215686274,0.3176470588235294,0.335298,0.333883,0.880964
0.0275269,0.0117035,-0.229858,0.7098039215686275,0.5294117647058824,0.3450980392156862,0.0,0.368411,0.929663
0.0287323,0.0117035,-0.229858,0.7411764705882353,0.5803921568627451,0.388235294117647,-0.25706,0.256249,0.931803
0.0298157,0.0116577,-0.228882,0.7607843137254902,0.6,0.4078431372549019,-0.25706,0.256249,0.931803
0.0310211,0.0116577,-0.228882,0.7529411764705882,0.6,0.4078431372549019,-0.134941,0.1358,0.981504
0.032196,0.0116577,-0.228882,0.7215686274509804,0.5647058823529412,0.392156862745098,0.0,0.0,1.0
0.0334167,0.0116577,-0.228882,0.7058823529411765,0.5529411764705883,0.3607843137254902,0.0,0.0,1.0
0.0346069,0.0116577,-0.228882,0.6941176470588235,0.5333333333333333,0.3411764705882353,0.0,0.0,1.0
0.0358276,0.0116577,-0.228882,0.6745098039215687,0.5137254901960784,0.3294117647058823,0.0,0.0,1.0
0.0370178,0.0116577,-0.228882,0.6431372549019608,0.4784313725490196,0.3058823529411765,0.0,0.0,1.0
-0.00145721,0.0105896,-0.231812,0.5882352941176471,0.4431372549019607,0.2666666666666666,-0.625179,0.0,0.780481
-0.000238061,0.0105438,-0.230835,0.596078431372549,0.4549019607843137,0.2666666666666666,-0.37298,0.0,0.927839
0.000974655,0.0105438,-0.230835,0.5882352941176471,0.4431372549019607,0.2666666666666666,-0.259371,-0.129482,0.957058
0.00217628,0.010498,-0.229858,0.596078431372549,0.4392156862745098,0.2666666666666666,-0.467093,-0.233731,0.852757
0.00338554,0.010498,-0.229858,0.6196078431372549,0.4627450980392157,0.2901960784313726,-0.377396,0.0,0.926052
0.00457001,0.0104523,-0.228882,0.6431372549019608,0.4901960784313725,0.3058823529411765,-0.379123,0.0,0.925346
0.00577164,0.0104523,-0.228882,0.6862745098039216,0.5254901960784314,0.3411764705882353,-0.419242,0.0,0.907874
0.00694656,0.0104065,-0.227783,0.7058823529411765,0.5450980392156862,0.3529411764705882,-0.421095,0.0,0.907017
0.00814056,0.0104065,-0.227783,0.7019607843137254,0.5411764705882353,0.3411764705882353,0.0,0.0,1.0
0.00933838,0.0104065,-0.227783,0.7019607843137254,0.5372549019607843,0.3294117647058823,-0.383409,0.0,0.923579
0.0104904,0.0103607,-0.226807,0.6901960784313725,0.5215686274509804,0.3254901960784314,-0.385184,0.0,0.92284
0.0116806,0.0103607,-0.226807,0.7176470588235294,0.5490196078431373,0.3529411764705882,0.0,0.0,1.0
0.0128708,0.0103607,-0.226807,0.7137254901960784,0.5529411764705883,0.3686274509803922,0.0,0.0,1.0
0.014061,0.0103607,-0.226807,0.7333333333333333,0.5764705882352941,0.4117647058823529,0.0,0.0,1.0
0.0152512,0.0103607,-0.226807,0.7372549019607844,0.5882352941176471,0.4313725490196078,0.0,0.0,1.0
0.016449,0.0103607,-0.226807,0.7411764705882353,0.592156862745098,0.4352941176470588,0.0,0.0,1.0
0.0176392,0.0103607,-0.226807,0.7294117647058823,0.5843137254901961,0.4156862745098039,0.255063,0.127531,0.958477
0.0189056,0.0104065,-0.227783,0.7254901960784313,0.5686274509803921,0.396078431372549,0.446278,0.223852,0.866445
0.0201111,0.0104065,-0.227783,0.6823529411764706,0.5058823529411764,0.3019607843137254,0.0,0.0,1.0
0.0238037,0.0104523,-0.228882,0.7176470588235294,0.5254901960784314,0.2941176470588235,0.0,0.0,1.0
0.0250092,0.0104523,-0.228882,0.7450980392156863,0.5725490196078431,0.3411764705882353,0.0,0.0,1.0
0.0261993,0.0104523,-0.228882,0.7568627450980392,0.5843137254901961,0.3529411764705882,0.126984,0.252361,0.959265
0.0274048,0.0104523,-0.228882,0.7686274509803922,0.6078431372549019,0.3803921568627451,0.0,0.370393,0.928875
0.0286102,0.0104523,-0.228882,0.7607843137254902,0.611764705882353,0.4,0.0,0.370393,0.928875
0.0298157,0.0104523,-0.228882,0.7647058823529411,0.6235294117647059,0.4352941176470588,-0.134403,0.134403,0.98177
0.0310211,0.0104523,-0.228882,0.7411764705882353,0.596078431372549,0.4274509803921568,0.0,0.0,1.0
0.032196,0.0104523,-0.228882,0.7137254901960784,0.5686274509803921,0.4,0.0,0.0,1.0
0.0334167,0.0104523,-0.228882,0.7058823529411765,0.5607843137254902,0.3843137254901961,0.0,0.0,1.0
0.0346069,0.0104523,-0.228882,0.6823529411764706,0.5411764705882353,0.3529411764705882,0.0,0.0,1.0
0.0358276,0.0104523,-0.228882,0.6666666666666666,0.5098039215686274,0.3372549019607843,0.0,0.0,1.0
0.0370178,0.0104523,-0.228882,0.6352941176470588,0.4784313725490196,0.3058823529411765,0.131301,-0.130465,0.98272
-0.00145721,0.0093689,-0.231812,0.5725490196078431,0.4352941176470588,0.2549019607843137,-0.625179,0.0,0.780481
-0.000238061,0.00933075,-0.230835,0.5843137254901961,0.4470588235294118,0.2666666666666666,-0.306528,0.0,0.951862
0.000974655,0.00933075,-0.230835,0.5882352941176471,0.4431372549019607,0.2666666666666666,0.0,0.0,1.0
0.00218582,0.00933075,-0.230835,0.592156862745098,0.4392156862745098,0.2549019607843137,-0.466367,-0.233367,0.853254
0.00338554,0.0092926,-0.229858,0.6039215686274509,0.4509803921568627,0.2588235294117647,-0.46815,-0.234631,0.851929
0.00457001,0.00925446,-0.228882,0.6313725490196078,0.4705882352941176,0.2784313725490196,-0.47075,-0.235561,0.850238
0.00577164,0.00925446,-0.228882,0.6470588235294118,0.4862745098039215,0.2941176470588235,-0.419612,0.0,0.907703
0.00694656,0.00920868,-0.227783,0.6862745098039216,0.5254901960784314,0.3333333333333333,-0.420725,0.0,0.907188
0.00814056,0.00920868,-0.227783,0.6941176470588235,0.5333333333333333,0.3333333333333333,0.0,0.0,1.0
0.00933838,0.00920868,-0.227783,0.6862745098039216,0.5254901960784314,0.3254901960784314,-0.383409,0.0,0.923579
0.0104904,0.00917053,-0.226807,0.6784313725490196,0.5176470588235295,0.3176470588235294,-0.385184,0.0,0.92284
0.0116806,0.00917053,-0.226807,0.7058823529411765,0.5372549019607843,0.3490196078431372,0.0,0.0,1.0
0.0128708,0.00917053,-0.226807,0.7137254901960784,0.5568627450980392,0.3843137254901961,0.0,0.0,1.0
0.014061,0.00917053,-0.226807,0.7254901960784313,0.5686274509803921,0.403921568627451,0.0,0.0,1.0
0.0152512,0.00917053,-0.226807,0.7411764705882353,0.596078431372549,0.4274509803921568,0.0,0.0,1.0
0.016449,0.00917053,-0.226807,0.7490196078431373,0.6,0.4431372549019607,0.0,0.0,1.0
0.0176392,0.00917053,-0.226807,0.7450980392156863,0.6,0.4313725490196078,0.0,0.0,1.0
0.0188293,0.00917053,-0.226807,0.7176470588235294,0.5764705882352941,0.3803921568627451,0.341305,0.342032,0.875514
0.0201111,0.00920868,-0.227783,0.7019607843137254,0.5450980392156862,0.3333333333333333,0.340338,0.340338,0.87655
0.0213013,0.00920868,-0.227783,0.7019607843137254,0.5215686274509804,0.3019607843137254,0.0,0.0,1.0
0.0238037,0.00925446,-0.228882,0.7294117647058823,0.5372549019607843,0.3058823529411765,0.367841,0.367841,0.854041
0.0250092,0.00925446,-0.228882,0.7764705882352941,0.6039215686274509,0.3725490196078431,0.0,0.0,1.0
0.0261993,0.00925446,-0.228882,0.8,0.6509803921568628,0.4313725490196078,0.0,0.0,1.0
0.0274048,0.00925446,-0.228882,0.7843137254901961,0.6431372549019608,0.4392156862745098,0.0,0.0,1.0
0.0286102,0.00925446,-0.228882,0.7686274509803922,0.6274509803921569,0.4235294117647059,0.0,0.0,1.0
0.0298157,0.00925446,-0.228882,0.7568627450980392,0.615686274509804,0.4274509803921568,0.0,0.0,1.0
0.0310211,0.00925446,-0.228882,0.7176470588235294,0.5725490196078431,0.396078431372549,0.0,0.0,1.0
0.032196,0.00925446,-0.228882,0.7058823529411765,0.5490196078431373,0.3764705882352941,0.0,0.0,1.0
0.0334167,0.00925446,-0.228882,0.6862745098039216,0.5411764705882353,0.3647058823529411,0.0,0.0,1.0
0.0346069,0.00925446,-0.228882,0.6705882352941176,0.5254901960784314,0.3490196078431372,0.0,0.0,1.0
0.0358276,0.00925446,-0.228882,0.6509803921568628,0.4941176470588235,0.3294117647058823,0.131046,-0.129387,0.982897
0.0370178,0.00925446,-0.228882,0.615686274509804,0.4588235294117647,0.2941176470588235,0.245436,-0.246215,0.937624
-0.000238061,0.00811768,-0.230835,0.5803921568627451,0.4352941176470588,0.2588235294117647,-0.252463,-0.253184,0.933895
0.000974655,0.00811768,-0.230835,0.5803921568627451,0.4352941176470588,0.2588235294117647,0.0,0.0,1.0
0.00338554,0.00808716,-0.229858,0.5764705882352941,0.4352941176470588,0.2470588235294117,-0.376114,0.0,0.926573
0.0045929,0.00808716,-0.229858,0.611764705882353,0.4509803921568627,0.2509803921568627,-0.470417,-0.235022,0.850572
0.00577164,0.00804901,-0.228882,0.6235294117647059,0.4666666666666667,0.2549019607843137,-0.492325,-0.246186,0.83487
0.00694656,0.00801086,-0.227783,0.6431372549019608,0.4784313725490196,0.2627450980392157,-0.513848,-0.256924,0.818505
0.00814056,0.00801086,-0.227783,0.6784313725490196,0.5137254901960784,0.3058823529411765,0.0,0.0,1.0
0.00933838,0.00801086,-0.227783,0.6784313725490196,0.5215686274509804,0.3098039215686274,-0.383586,0.0,0.923505
0.0104904,0.00798035,-0.226807,0.6823529411764706,0.5215686274509804,0.3215686274509804,-0.385006,0.0,0.922914
0.0116806,0.00798035,-0.226807,0.6980392156862745,0.5372549019607843,0.3372549019607843,0.0,0.0,1.0
0.0128708,0.00798035,-0.226807,0.7058823529411765,0.5450980392156862,0.3529411764705882,0.0,0.0,1.0
0.014061,0.00798035,-0.226807,0.7215686274509804,0.5686274509803921,0.3843137254901961,0.0,0.0,1.0
0.0152512,0.00798035,-0.226807,0.7333333333333333,0.5764705882352941,0.4117647058823529,0.0,0.0,1.0
0.016449,0.00798035,-0.226807,0.7450980392156863,0.6,0.4313725490196078,0.0,0.0,1.0
0.0176392,0.00798035,-0.226807,0.7490196078431373,0.6039215686274509,0.4352941176470588,0.0,0.0,1.0
0.0188293,0.00798035,-0.226807,0.7294117647058823,0.5764705882352941,0.392156862745098,0.0,0.0,1.0
0.0200195,0.00798035,-0.226807,0.7254901960784313,0.5647058823529412,0.3725490196078431,0.34167,0.340578,0.875938
0.0213013,0.00801086,-0.227783,0.7294117647058823,0.5725490196078431,0.3529411764705882,0.339943,0.339943,0.876857
0.0225067,0.00801086,-0.227783,0.7372549019607844,0.5803921568627451,0.3607843137254902,0.0,0.0,1.0
0.0236969,0.00801086,-0.227783,0.7647058823529411,0.6,0.3843137254901961,0.368992,0.369383,0.852878
0.0250092,0.00804901,-0.228882,0.7843137254901961,0.6196078431372549,0.403921568627451,0.243952,0.487128,0.838566
0.0261993,0.00804901,-0.228882,0.803921568627451,0.6549019607843137,0.4352941176470588,0.141525,0.282152,0.948874
0.0274048,0.00804901,-0.228882,0.792156862745098,0.6509803921568628,0.4549019607843137,0.0,0.0,1.0
0.0286102,0.00804901,-0.228882,0.7490196078431373,0.6078431372549019,0.4117647058823529,0.0,0.0,1.0
0.0298157,0.00804901,-0.228882,0.7490196078431373,0.6078431372549019,0.4117647058823529,0.0,0.0,1.0
0.0310211,0.00804901,-0.228882,0.7098039215686275,0.5686274509803921,0.3803921568627451,0.0,0.0,1.0
0.032196,0.00804901,-0.228882,0.6745098039215687,0.5176470588235295,0.3450980392156862,0.0,0.0,1.0
0.0334167,0.00804901,-0.228882,0.6666666666666666,0.5098039215686274,0.3372549019607843,0.0,0.0,1.0
0.0346069,0.00804901,-0.228882,0.6431372549019608,0.4862745098039215,0.3137254901960784,0.130276,-0.132344,0.982605
0.0358276,0.00804901,-0.228882,0.6352941176470588,0.4784313725490196,0.3058823529411765,0.2455,-0.245112,0.937896
0.0371704,0.00808716,-0.229858,0.5882352941176471,0.4431372549019607,0.2745098039215686,0.245497,-0.24511,0.937898
0.00814056,0.00681686,-0.227783,0.6431372549019608,0.4666666666666667,0.2549019607843137,-0.293056,-0.146528,0.9448
0.00933838,0.00681686,-0.227783,0.6666666666666666,0.5058823529411764,0.3058823529411765,-0.383586,0.0,0.923505
0.0104904,0.00678635,-0.226807,0.6666666666666666,0.5058823529411764,0.3058823529411765,-0.385007,0.0,0.922914
0.0116806,0.00678635,-0.226807,0.6862745098039216,0.5254901960784314,0.3254901960784314,0.0,0.0,1.0
0.0128708,0.00678635,-0.226807,0.6980392156862745,0.5372549019607843,0.3450980392156862,0.0,0.0,1.0
0.014061,0.00678635,-0.226807,0.7137254901960784,0.5607843137254902,0.3764705882352941,0.0,0.0,1.0
0.0152512,0.00678635,-0.226807,0.7254901960784313,0.5686274509803921,0.396078431372549,-0.134592,0.135455,0.981599
0.016449,0.00678635,-0.226807,0.7333333333333333,0.5764705882352941,0.403921568627451,0.128174,0.25717,0.957828
0.0176392,0.00678635,-0.226807,0.7372549019607844,0.592156862745098,0.4156862745098039,0.0,0.0,1.0
0.0188293,0.00678635,-0.226807,0.7411764705882353,0.596078431372549,0.4196078431372549,0.0,0.0,1.0
0.0200195,0.00678635,-0.226807,0.7490196078431373,0.6039215686274509,0.4274509803921568,0.0,0.0,1.0
0.0212097,0.00678635,-0.226807,0.7529411764705882,0.6,0.4078431372549019,0.340645,0.341371,0.876029
0.0225067,0.00681686,-0.227783,0.7490196078431373,0.596078431372549,0.396078431372549,0.339456,0.34018,0.876953
0.0236969,0.00681686,-0.227783,0.7764705882352941,0.6274509803921569,0.4156862745098039,0.0,0.0,1.0
0.0249023,0.00681686,-0.227783,0.7843137254901961,0.6431372549019608,0.4470588235294118,0.141379,0.28366,0.948446
0.0260925,0.00681686,-0.227783,0.7803921568627451,0.6392156862745098,0.4431372549019607,0.245094,0.488627,0.837361
0.0274048,0.00684738,-0.228882,0.7607843137254902,0.6274509803921569,0.4352941176470588,0.367517,0.367907,0.854152
0.0286102,0.00684738,-0.228882,0.7254901960784313,0.5843137254901961,0.396078431372549,0.0,0.0,1.0
0.0298157,0.00684738,-0.228882,0.6980392156862745,0.5450980392156862,0.3529411764705882,0.0,0.0,1.0
0.0310211,0.00684738,-0.228882,0.6627450980392157,0.5098039215686274,0.3176470588235294,0.0,0.0,1.0
0.032196,0.00684738,-0.228882,0.6509803921568628,0.4901960784313725,0.2980392156862745,0.131194,-0.133276,0.982357
0.0334167,0.00684738,-0.228882,0.6470588235294118,0.4862745098039215,0.2941176470588235,0.0,-0.378689,0.925524
0.0346069,0.00684738,-0.228882,0.615686274509804,0.4549019607843137,0.2627450980392157,0.245016,-0.245404,0.937946
0.0359802,0.0068779,-0.229858,0.596078431372549,0.4509803921568627,0.2745098039215686,0.245019,-0.245407,0.937945
0.00933838,0.00562286,-0.227783,0.6431372549019608,0.4784313725490196,0.2705882352941176,-0.263993,-0.132207,0.955421
0.0104904,0.00559616,-0.226807,0.6549019607843137,0.4862745098039215,0.2901960784313726,-0.476884,-0.238633,0.845953
0.0116806,0.00559616,-0.226807,0.6823529411764706,0.5137254901960784,0.3176470588235294,0.0,0.0,1.0
0.0128708,0.00559616,-0.226807,0.6862745098039216,0.5254901960784314,0.3333333333333333,0.0,0.0,1.0
0.014061,0.00559616,-0.226807,0.6980392156862745,0.5372549019607843,0.3450980392156862,0.0,0.0,1.0
0.0152512,0.00559616,-0.226807,0.7137254901960784,0.5568627450980392,0.3843137254901961,-0.388962,0.0,0.921254
0.0163727,0.00557327,-0.22583,0.7176470588235294,0.5607843137254902,0.388235294117647,0.0,0.376628,0.926365
0.0176392,0.00559616,-0.226807,0.7254901960784313,0.5686274509803921,0.396078431372549,0.344029,0.344397,0.873519
0.0188293,0.00559616,-0.226807,0.7450980392156863,0.6,0.4235294117647059,0.0,0.0,1.0
0.0200195,0.00559616,-0.226807,0.7647058823529411,0.6196078431372549,0.4509803921568627,0.0,0.0,1.0
0.0212097,0.00559616,-0.226807,0.7686274509803922,0.6235294117647059,0.4470588235294118,0.0,0.0,1.0
0.0223999,0.00559616,-0.226807,0.7686274509803922,0.6235294117647059,0.4470588235294118,0.340516,0.340153,0.876553
0.0236969,0.00562286,-0.227783,0.796078431372549,0.6588235294117647,0.4784313725490196,0.338976,0.339337,0.877465
0.0249023,0.00562286,-0.227783,0.788235294117647,0.6509803921568628,0.4705882352941176,0.0,0.0,1.0
0.0260925,0.00562286,-0.227783,0.7647058823529411,0.6274509803921569,0.4470588235294118,0.0,0.0,1.0
0.0272827,0.00562286,-0.227783,0.7254901960784313,0.5843137254901961,0.396078431372549,0.480127,0.239872,0.843765
0.0286102,0.00564575,-0.228882,0.7019607843137254,0.5490196078431373,0.3568627450980392,0.278405,0.139644,0.950258
0.0298157,0.00564575,-0.228882,0.6705882352941176,0.5098039215686274,0.3176470588235294,0.0,0.0,1.0
0.0310211,0.00564575,-0.228882,0.6392156862745098,0.4784313725490196,0.2862745098039215,0.13193,-0.128998,0.98283
0.032196,0.00564575,-0.228882,0.6235294117647059,0.4549019607843137,0.2666666666666666,0.246223,-0.244665,0.937824
0.0335693,0.00567245,-0.229858,0.611764705882353,0.4509803921568627,0.2588235294117647,0.244821,-0.244821,0.93815
0.00933838,0.00442505,-0.227783,0.6039215686274509,0.4352941176470588,0.2392156862745098,-0.292775,-0.146387,0.944909
0.0105362,0.00442505,-0.227783,0.6274509803921569,0.4588235294117647,0.2705882352941176,-0.476303,-0.238056,0.846442
0.0116806,0.00440598,-0.226807,0.6627450980392157,0.4941176470588235,0.2980392156862745,-0.265308,-0.132548,0.955009
0.0128708,0.00440598,-0.226807,0.6745098039215687,0.5137254901960784,0.3137254901960784,0.0,0.0,1.0
0.014061,0.00440598,-0.226807,0.6823529411764706,0.5215686274509804,0.3215686274509804,0.0,0.0,1.0
0.0152512,0.00440598,-0.226807,0.6901960784313725,0.5372549019607843,0.3450980392156862,-0.266601,-0.134048,0.95444
0.0163727,0.0043869,-0.22583,0.6901960784313725,0.5372549019607843,0.3450980392156862,-0.482202,-0.242068,0.841952
0.0175629,0.0043869,-0.22583,0.6941176470588235,0.5411764705882353,0.3490196078431372,0.450764,0.225563,0.863674
0.0188293,0.00440598,-0.226807,0.7176470588235294,0.5647058823529412,0.3725490196078431,0.255922,0.127858,0.958205
0.0200195,0.00440598,-0.226807,0.7450980392156863,0.592156862745098,0.4078431372549019,0.0,0.0,1.0
0.0212097,0.00440598,-0.226807,0.7529411764705882,0.6078431372549019,0.4313725490196078,0.0,0.0,1.0
0.0223999,0.00440598,-0.226807,0.7686274509803922,0.6313725490196078,0.4509803921568627,0.0,0.0,1.0
0.0235901,0.00440598,-0.226807,0.7529411764705882,0.615686274509804,0.4352941176470588,0.443236,0.222237,0.868419
0.0249023,0.00442505,-0.227783,0.7490196078431373,0.6039215686274509,0.4274509803921568,0.2525,0.127054,0.959219
